-1.11887 1.59544 3.99168 134 138 121 
-1.10544 1.59181 3.98261 131 136 116 
-1.09494 1.59237 3.98401 125 130 110 
-1.08785 1.59795 3.99797 130 135 115 
-1.07802 1.59959 4.00205 120 123 104 
-1.06888 1.60228 4.0088 123 126 107 
-1.05399 1.59634 3.99394 138 139 121 
-1.04425 1.59814 3.99843 133 137 120 
-1.03098 1.59451 3.98936 122 126 109 
-1.02107 1.59608 3.99328 123 128 108 
-0.999326 1.57897 3.95047 103 111 90 
-0.992038 1.58458 3.96451 110 118 97 
-0.982878 1.58729 3.97129 100 104 87 
-0.98734 1.6123 4.03387 100 103 86 
-0.982834 1.62307 4.06082 132 134 120 
-0.976752 1.63146 4.0818 124 125 111 
-0.939836 1.6065 4.01936 132 129 114 
-0.91978 1.59082 3.98012 126 123 108 
-0.903078 1.58063 3.95463 57 51 35 
-0.890961 1.57832 3.94884 100 94 78 
-0.880527 1.57896 3.95046 113 104 89 
-0.873187 1.58525 3.96618 111 104 88 
-0.859667 1.58032 3.95386 96 90 74 
-0.849021 1.58063 3.95462 84 81 64 
-0.842913 1.5895 3.97681 137 134 119 
-0.831898 1.58922 3.97612 125 123 108 
-0.820904 1.58898 3.97552 118 119 105 
-0.807079 1.58318 3.96101 135 137 123 
-0.795026 1.58075 3.95492 128 130 116 
-0.789713 1.59183 3.98265 134 138 121 
-0.774739 1.58348 3.96175 141 145 128 
-0.754361 1.56369 3.91224 134 138 121 
-0.747432 1.57161 3.93205 114 118 101 
-0.74455 1.58839 3.97404 125 128 111 
-0.733742 1.58851 3.97434 130 133 116 
-0.720929 1.58423 3.96363 152 155 136 
-0.709445 1.58278 3.96001 140 139 121 
-0.698215 1.58187 3.95772 138 137 119 
-0.684104 1.57429 3.93877 133 132 114 
-0.67655 1.58181 3.95757 132 131 113 
-0.667554 1.58614 3.96841 129 126 109 
-0.656172 1.58485 3.96519 137 134 117 
-0.64299 1.5791 3.95079 138 135 118 
-0.630791 1.57561 3.94206 137 134 117 
-0.619761 1.57496 3.94045 135 132 117 
-0.610442 1.57872 3.94985 133 130 115 
-0.599696 1.57886 3.95019 116 114 99 
-0.588762 1.5785 3.94929 116 114 99 
-0.578868 1.58096 3.95545 108 106 91 
-0.568359 1.58181 3.95757 112 109 94 
-0.557308 1.58115 3.95592 64 58 44 
-0.544396 1.57508 3.94074 72 66 54 
-0.532547 1.5719 3.93279 113 107 95 
-0.522393 1.5737 3.93729 106 102 91 
-0.514294 1.5819 3.9578 116 112 101 
-0.504948 1.58653 3.96939 113 109 100 
-0.495137 1.58987 3.97775 76 74 62 
-0.483508 1.58739 3.97154 73 69 57 
-0.472135 1.58566 3.96721 124 121 106 
-0.462418 1.58954 3.97692 134 132 117 
-0.450971 1.58751 3.97185 124 125 107 
-0.43809 1.58022 3.95359 115 116 98 
-0.426485 1.57727 3.94622 117 120 103 
-0.415224 1.57548 3.94173 100 103 84 
-0.406768 1.58451 3.96434 108 109 91 
-0.397478 1.59071 3.97984 117 118 100 
-0.384294 1.58122 3.95611 114 115 97 
-0.371853 1.57434 3.93889 116 118 97 
-0.361903 1.57791 3.94781 129 131 110 
-0.352274 1.58314 3.9609 122 121 101 
-0.340203 1.57737 3.94648 141 140 122 
-0.329573 1.57813 3.94837 139 136 119 
-0.317247 1.57055 3.9294 142 139 122 
-0.310104 1.58899 3.97554 134 132 119 
-0.300161 1.5939 3.98783 150 148 135 
-0.287333 1.58329 3.96128 141 139 126 
-0.276272 1.58196 3.95795 111 109 96 
-0.266377 1.58747 3.97174 138 136 123 
-0.255931 1.59003 3.97815 135 131 119 
-0.243529 1.58013 3.95337 134 132 119 
-0.232807 1.58071 3.95483 141 139 126 
-0.222223 1.58233 3.95888 141 142 128 
-0.210835 1.57809 3.94828 129 129 117 
-0.199459 1.5735 3.9368 129 129 117 
-0.188605 1.57274 3.93488 144 144 132 
-0.178283 1.57658 3.9445 135 135 125 
-0.167349 1.57517 3.94096 153 153 145 
-0.156662 1.57604 3.94313 133 134 128 
-0.146069 1.57805 3.94818 0 0 0 
-0.135345 1.57886 3.95021 0 0 0 
-0.124394 1.57693 3.94537 0 0 0 
-0.113469 1.57501 3.94056 0 0 0 
-0.0626874 0.961403 2.40536 75 80 76 
-0.0559251 0.958207 2.39737 86 95 94 
-0.0494485 0.959706 2.40112 81 91 92 
-0.0424998 0.951098 2.37958 79 90 92 
-0.0360242 0.95188 2.38154 86 97 99 
-0.029558 0.95331 2.38512 77 91 94 
-0.0230786 0.955003 2.38935 89 102 108 
-0.0165524 0.955334 2.39018 90 104 107 
-0.0100381 0.957226 2.39491 79 93 96 
-0.00348256 0.954926 2.38916 82 95 101 
0.00304783 0.954612 2.38837 89 104 109 
0.00956083 0.952993 2.38432 89 104 109 
0.0160646 0.952143 2.3822 94 109 114 
0.0225408 0.950617 2.37838 91 106 111 
0.0290248 0.950031 2.37691 94 109 112 
0.0355299 0.950223 2.37739 89 104 107 
0.0420828 0.951435 2.38042 89 104 107 
0.0486997 0.953579 2.38579 90 105 108 
0.0553714 0.956159 2.39224 95 110 115 
0.0619293 0.956439 2.39294 102 117 124 
0.0684752 0.956497 2.39309 105 120 127 
0.0749344 0.955441 2.39045 101 118 125 
0.081564 0.956551 2.39322 105 120 125 
0.0883886 0.959613 2.40089 109 123 126 
0.094796 0.958037 2.39694 112 124 124 
0.102969 0.973351 2.43526 103 109 107 
0.109654 0.9736 2.43588 104 109 102 
0.207959 1.56188 3.90771 145 143 131 
0.221692 1.58367 3.96224 115 113 101 
0.233175 1.58811 3.97333 99 97 85 
0.243402 1.58397 3.96298 114 112 100 
0.254715 1.58695 3.97045 133 131 119 
0.266214 1.59081 3.98009 106 104 92 
0.27768 1.59417 3.98851 108 109 95 
0.289114 1.5971 3.99583 99 100 84 
0.299992 1.59686 3.99523 89 92 73 
0.310193 1.59315 3.98596 93 98 78 
0.323467 1.60495 4.01547 137 142 122 
0.33234 1.59485 3.9902 105 108 91 
0.341361 1.58608 3.96827 99 102 85 
0.354645 1.59705 3.99571 94 95 79 
0.36703 1.60344 4.01169 133 134 118 
0.377613 1.60181 4.00761 125 123 110 
0.38892 1.60325 4.01123 114 112 99 
0.398816 1.59897 4.0005 112 110 97 
0.411188 1.60457 4.01452 86 84 71 
0.421356 1.6015 4.00685 138 139 123 
0.433507 1.60594 4.01794 104 107 90 
0.445159 1.60835 4.02398 113 116 99 
0.452927 1.59695 3.99547 97 100 83 
0.462522 1.59238 3.98403 88 91 74 
0.470006 1.58092 3.95536 37 38 22 
0.481334 1.58262 3.95959 96 94 79 
0.495726 1.59409 3.98829 114 112 97 
0.507991 1.59837 3.99901 125 126 110 
0.520417 1.60297 4.01053 127 128 114 
0.530141 1.59923 4.00117 155 153 140 
0.537715 1.58929 3.97629 125 123 111 
0.548277 1.58839 3.97405 106 104 92 
0.559831 1.59035 3.97896 109 107 95 
0.570871 1.59081 3.98009 123 121 109 
0.581531 1.59021 3.97858 105 103 91 
0.593046 1.59192 3.98287 113 113 101 
0.605249 1.59538 3.99154 123 125 112 
0.615559 1.59383 3.98764 123 124 110 
0.638913 1.62551 4.06691 118 119 105 
0.642819 1.60747 4.02179 121 119 106 
0.653613 1.60698 4.02055 118 116 103 
0.66804 1.61529 4.04133 125 121 109 
0.679305 1.6158 4.04263 105 101 89 
0.686299 1.60631 4.01887 128 124 112 
0.698472 1.60904 4.0257 105 101 89 
0.707476 1.6045 4.01435 98 94 82 
0.714741 1.59622 3.99362 110 108 95 
0.726611 1.59831 3.99886 50 48 35 
0.737066 1.59728 3.99628 57 55 42 
0.752946 1.60786 4.02275 105 103 90 
0.762982 1.60584 4.01769 135 133 120 
0.776425 1.61094 4.03046 116 114 101 
0.786431 1.60887 4.02528 133 129 117 
0.798317 1.61065 4.02973 126 122 110 
0.812085 1.61612 4.04343 139 135 123 
0.82394 1.6177 4.04737 130 128 115 
0.832047 1.61197 4.03303 123 121 108 
0.846022 1.61761 4.04714 107 105 93 
0.858122 1.61956 4.05203 122 120 108 
0.864129 1.61012 4.0284 125 125 113 
0.873565 1.60721 4.02114 151 151 141 
0.890996 1.61891 4.05041 149 151 140 
0.897703 1.61108 4.0308 161 163 152 
0.906986 1.608 4.0231 156 157 149 
0.920809 1.61295 4.03548 130 131 123 
0.935203 1.61877 4.05004 89 91 80 
0.945045 1.61666 4.04478 98 102 88 
0.956041 1.61656 4.04452 116 120 106 
0.965652 1.61414 4.03847 131 132 118 
0.977371 1.61526 4.04128 138 139 125 
0.987733 1.61414 4.03847 133 131 116 
0.998394 1.61353 4.03694 141 138 123 
1.00859 1.61218 4.03357 129 126 111 
1.02617 1.62255 4.05951 111 108 91 
1.03895 1.62518 4.06608 120 119 101 
1.04892 1.62341 4.06165 114 115 97 
1.06205 1.62651 4.06941 91 94 73 
1.0641 1.61275 4.03499 102 111 84 
1.08015 1.62028 4.05384 74 83 56 
1.0881 1.61564 4.04222 110 114 91 
1.08786 1.59904 4.00069 94 98 75 
1.0979 1.59774 3.99744 88 90 69 
1.10756 1.59591 3.99286 116 117 99 
1.1191 1.5968 3.99507 127 128 110 
1.12696 1.59247 3.98426 128 129 111 
1.14002 1.5955 3.99183 109 108 90 
1.15834 1.60577 4.01752 112 113 95 
1.17621 1.61523 4.0412 114 115 97 
1.18539 1.61269 4.03485 129 132 113 
1.18923 1.603 4.01058 136 141 121 
1.20111 1.60422 4.01366 102 105 86 
1.21289 1.60529 4.01632 138 141 122 
1.22811 1.61086 4.03025 134 135 117 
1.24107 1.61338 4.03658 136 137 121 
1.25498 1.61708 4.04582 114 112 97 
1.27057 1.62286 4.06029 157 155 140 
1.28641 1.62887 4.07532 144 142 129 
1.29407 1.6245 4.06439 132 130 117 
1.30323 1.62208 4.05832 127 125 112 
1.30057 1.6051 4.01584 134 131 116 
1.32524 1.62186 4.05778 149 146 131 
1.3377 1.62351 4.06191 123 119 107 
1.35438 1.63022 4.07871 148 144 132 
1.36192 1.62592 4.06793 138 135 120 
1.37423 1.62733 4.07146 146 143 128 
1.37847 1.60632 4.01891 128 125 108 
1.41369 1.62152 4.05693 144 141 124 
1.41978 1.61583 4.04269 148 142 126 
1.42481 1.60902 4.02566 150 144 128 
1.43559 1.60877 4.02503 145 139 123 
1.45904 1.62262 4.05968 149 140 125 
1.47967 1.63313 4.08598 154 145 130 
1.47464 1.61539 4.0416 129 122 106 
1.49738 1.6281 4.0734 109 102 86 
1.50653 1.62596 4.06803 130 125 106 
1.51007 1.61783 4.04771 126 121 102 
1.52025 1.61689 4.04535 123 120 101 
1.53816 1.62412 4.06344 118 115 96 
1.53826 1.61258 4.03457 132 129 110 
1.56731 1.63135 4.08152 140 137 118 
1.57319 1.62589 4.06785 139 136 119 
1.59537 1.63724 4.09625 132 130 115 
1.602 1.63259 4.08462 123 124 108 
1.62245 1.64198 4.10811 107 110 91 
1.63368 1.64198 4.10811 155 158 139 
1.6221 1.61921 4.05115 136 137 119 
1.67743 1.64083 4.10525 0 0 0 
1.66036 1.61334 4.03647 145 143 128 
1.71227 1.6528 4.13519 0 0 0 
1.69083 1.62139 4.05661 123 122 104 
1.71484 1.6337 4.0874 126 125 107 
1.76515 1.63892 4.10046 139 138 120 
1.73475 1.60053 4.00442 127 126 108 
1.79116 1.64221 4.10869 132 131 113 
1.80699 1.6464 4.11917 146 144 129 
1.83966 1.6454 4.11668 149 147 132 
1.86846 1.65096 4.1306 146 143 128 
1.88454 1.62587 4.0678 142 141 123 
1.90233 1.63159 4.08212 140 141 123 
1.99777 1.69358 4.23721 114 115 97 
1.99603 1.68234 4.20911 107 108 90 
1.9624 1.64452 4.11447 123 126 107 
1.97294 1.64393 4.11301 131 134 115 
1.97727 1.6382 4.09867 134 135 117 
2.01583 1.66074 4.15506 142 141 123 
2.02719 1.66074 4.15506 143 142 124 
2.0775 1.69247 4.23444 138 139 121 
2.09951 1.68228 4.20896 134 135 117 
2.24055 1.67589 4.19296 146 143 126 
2.25201 1.67589 4.19296 147 144 127 
2.44556 1.70698 4.27074 140 141 123 
2.49149 1.70645 4.26942 0 0 0 
2.44289 1.66536 4.16661 151 148 133 
0.81649 0.496432 1.24204 132 138 134 
0.816144 0.494167 1.23637 136 142 138 
0.819524 0.494167 1.23637 130 135 131 
0.84528 0.507604 1.26999 0 0 0 
0.828491 0.495487 1.23967 106 110 109 
0.824481 0.49108 1.22865 93 97 96 
0.816784 0.484522 1.21224 118 124 124 
0.815218 0.481638 1.20503 105 111 111 
0.818512 0.481638 1.20503 99 104 107 
0.82654 0.484413 1.21197 101 106 110 
0.825414 0.481821 1.20548 91 96 100 
0.817171 0.475112 1.1887 0 0 0 
0.809994 0.469074 1.17359 87 92 96 
-1.20666 0.700604 1.74096 55 54 26 
-1.18886 0.693005 1.72207 86 68 44 
-1.18116 0.691252 1.71772 131 115 89 
-1.17969 0.69315 1.72243 126 125 94 
-1.17046 0.690483 1.71581 82 103 64 
-1.17058 0.693335 1.72289 38 69 27 
-1.16587 0.693335 1.72289 38 60 22 
-1.1664 0.696458 1.73065 27 55 15 
-1.1602 0.695578 1.72846 37 63 26 
-1.15365 0.694479 1.72574 74 102 64 
-1.15201 0.696343 1.73037 59 89 51 
-1.15406 0.700457 1.74059 57 88 47 
-1.15817 0.705863 1.75402 64 95 53 
-1.15061 0.704171 1.74982 64 95 54 
-1.14583 0.704171 1.74982 70 98 60 
-1.1549 0.71272 1.77106 50 76 39 
-1.155 0.721861 1.79378 0 0 0 
-1.0975 0.688849 1.71175 76 97 58 
-1.09028 0.687246 1.70776 88 109 70 
-1.09466 0.692978 1.722 68 88 51 
-1.0882 0.691864 1.71924 45 62 28 
-1.0835 0.691864 1.71924 53 69 42 
-1.08891 0.698348 1.73535 64 80 54 
-1.10718 0.713169 1.77218 45 60 37 
-1.1105 0.718455 1.78531 33 51 29 
-1.14242 0.742365 1.84473 40 55 32 
-1.16054 0.771164 1.91629 73 96 70 
-1.1553 0.771164 1.91629 0 0 0 
-1.13431 0.760602 1.89005 21 44 18 
-1.13564 0.764976 1.90091 101 124 98 
-1.15709 0.783006 1.94572 24 44 17 
-1.15353 0.784207 1.9487 56 76 51 
-1.14413 0.781421 1.94178 66 89 63 
-1.13629 0.779689 1.93748 65 85 60 
-1.12768 0.777402 1.93179 65 83 59 
-1.11142 0.769798 1.9129 63 81 57 
-1.10794 0.771017 1.91593 58 73 50 
-1.07408 0.754586 1.8751 90 104 81 
-2.21104 1.67312 4.15759 117 124 108 
-2.12037 1.6644 4.13593 130 136 124 
-2.03166 1.64748 4.09387 102 117 98 
-1.92496 1.65195 4.10499 93 97 82 
-1.91944 1.66665 4.14151 111 112 98 
-1.88889 1.64986 4.09978 113 114 100 
-1.86319 1.64696 4.09258 134 132 120 
-1.80909 1.61857 4.02203 86 84 72 
-1.80453 1.64448 4.08642 112 108 99 
-1.79366 1.64475 4.08709 123 119 110 
-1.77755 1.6402 4.07578 141 137 128 
-1.74049 1.62639 4.04146 109 110 96 
-1.72944 1.62639 4.04146 117 119 105 
-1.67546 1.61695 4.018 102 106 92 
-1.64535 1.60898 3.99821 114 118 104 
-1.6563 1.63052 4.05175 113 117 103 
-1.64536 1.63065 4.05206 115 119 105 
-1.60335 1.59979 3.97537 140 142 129 
-1.61262 1.62002 4.02564 126 127 113 
-1.58372 1.60192 3.98067 111 112 98 
-1.58215 1.6114 4.00423 114 115 101 
-1.56827 1.60839 3.99675 124 125 111 
-1.54824 1.599 3.9734 129 130 116 
-1.53095 1.59231 3.95679 126 127 113 
-1.52929 1.60191 3.98063 116 118 105 
-1.48976 1.58303 3.93372 118 115 106 
-1.47363 1.57726 3.9194 124 121 112 
-1.47116 1.58616 3.94149 125 122 113 
-1.48719 1.61527 4.01384 109 106 97 
-1.4533 1.61419 4.01115 107 103 92 
-1.44367 1.61568 4.01487 0 0 0 
-1.41308 1.59357 3.95991 157 150 140 
-1.39719 1.58781 3.9456 164 157 149 
-1.39135 1.59347 3.95968 170 163 157 
-1.38985 1.60424 3.98643 172 163 158 
-1.38626 1.61274 4.00755 172 163 158 
-1.36924 1.60563 3.98988 168 161 155 
-1.3673 1.61623 4.01623 169 164 158 
-1.35229 1.61143 4.00429 121 121 111 
-1.3465 1.61762 4.01967 112 114 103 
-1.31077 1.61422 4.01123 131 133 119 
-1.30724 1.62346 4.03419 99 101 87 
-1.25228 1.60951 3.99953 105 113 92 
-1.18942 1.61324 4.00879 135 133 118 
-1.17435 1.60761 3.9948 136 134 121 
-1.1506 1.58988 3.95075 140 138 125 
-1.14465 1.59665 3.96757 145 146 132 
-1.12491 1.58412 3.93643 142 144 130 
-1.12678 1.60208 3.98105 141 144 127 
-1.11681 1.60339 3.98433 111 115 98 
-1.10421 1.60092 3.97818 134 142 121 
-1.09529 1.60378 3.9853 121 129 108 
-1.08279 1.60141 3.97939 126 134 113 
-1.07211 1.60171 3.98013 114 122 101 
-1.05677 1.59497 3.96339 108 116 95 
-1.04989 1.60101 3.9784 138 142 125 
-1.03556 1.59569 3.96517 100 104 87 
-1.02413 1.59476 3.96288 114 118 101 
-1.00871 1.58754 3.94493 131 135 118 
-1.0037 1.59673 3.96778 124 128 111 
-0.982741 1.58047 3.92735 131 134 117 
-0.987969 1.60642 3.99186 119 120 104 
-0.981401 1.61357 4.00961 114 115 99 
-0.970663 1.61394 4.01053 0 0 0 
-0.935911 1.57393 3.91112 127 125 112 
-0.924283 1.57234 3.90716 119 115 103 
-0.92452 1.59113 3.95386 130 126 114 
-0.911061 1.58652 3.94239 114 111 96 
-0.899303 1.58479 3.9381 129 122 106 
-0.886202 1.58062 3.92775 134 125 110 
-0.872991 1.57616 3.91665 143 131 117 
-0.857909 1.56816 3.89678 126 117 102 
-0.854153 1.58093 3.9285 95 89 73 
-0.844211 1.58242 3.93221 98 95 78 
-0.834548 1.58449 3.93734 91 90 72 
-0.822609 1.58223 3.93173 85 86 70 
-0.81097 1.58049 3.92741 103 104 88 
-0.797732 1.57555 3.91514 129 132 115 
-0.791202 1.5839 3.93589 122 125 108 
-0.783077 1.58925 3.94918 122 125 108 
-0.768177 1.58081 3.9282 137 140 123 
-0.756037 1.57788 3.92093 116 120 103 
-0.748487 1.58459 3.9376 114 118 101 
-0.740514 1.59059 3.9525 137 140 123 
-0.727894 1.58663 3.94267 135 138 121 
-0.715262 1.58253 3.93248 154 155 137 
-0.705694 1.58518 3.93908 132 129 112 
-0.695717 1.58699 3.94357 133 130 113 
-0.683038 1.58259 3.93264 140 139 121 
-0.66986 1.57688 3.91844 122 119 102 
-0.662401 1.58466 3.93777 128 125 108 
-0.650488 1.58187 3.93084 134 131 114 
-0.639615 1.58155 3.93006 141 138 121 
-0.628192 1.57985 3.92581 137 134 117 
-0.61693 1.57849 3.92245 136 133 118 
-0.606871 1.58022 3.92674 132 128 116 
-0.598667 1.58693 3.94341 125 121 109 
-0.587588 1.58612 3.94141 113 111 98 
-0.578297 1.5902 3.95154 119 117 102 
-0.56811 1.59193 3.95583 98 95 80 
-0.556839 1.59062 3.95259 111 108 93 
-0.543965 1.5846 3.93762 88 85 70 
-0.532174 1.58155 3.93004 72 68 56 
-0.521539 1.58188 3.93086 100 98 86 
-0.511716 1.58473 3.93796 99 97 85 
-0.501613 1.58683 3.94317 120 118 106 
-0.490761 1.5866 3.94259 137 137 125 
-0.479332 1.58445 3.93724 65 63 50 
-0.468542 1.58436 3.93702 89 87 72 
-0.458832 1.588 3.94607 102 103 87 
-0.448539 1.58975 3.95043 111 114 95 
-0.436807 1.58637 3.94202 97 100 81 
-0.423084 1.57539 3.91475 99 102 83 
-0.413269 1.57878 3.92317 91 94 75 
-0.404259 1.58551 3.93988 75 78 59 
-0.394714 1.59045 3.95216 121 124 105 
-0.382387 1.58414 3.93648 101 104 83 
-0.370543 1.57952 3.92501 95 98 77 
-0.360672 1.58329 3.93438 110 113 92 
-0.35084 1.58747 3.94477 117 118 100 
-0.340175 1.58803 3.94615 128 129 111 
-0.327543 1.57914 3.92406 124 123 105 
-0.317294 1.58153 3.92999 137 135 120 
-0.307791 1.58793 3.94589 122 120 107 
-0.297743 1.59188 3.95571 143 141 128 
-0.286178 1.58771 3.94536 147 145 132 
-0.274795 1.58426 3.93679 153 149 137 
-0.264251 1.58557 3.94005 146 144 131 
-0.25311 1.58326 3.9343 136 134 121 
-0.242114 1.58169 3.93041 137 135 122 
-0.232178 1.58722 3.94414 113 114 100 
-0.220693 1.58218 3.93162 113 115 101 
-0.209074 1.57562 3.91531 131 133 119 
-0.197862 1.57158 3.90527 127 125 113 
-0.187178 1.57151 3.90511 148 146 134 
-0.176583 1.57223 3.90689 161 157 148 
-0.166372 1.57668 3.91794 130 125 119 
-0.15597 1.57981 3.92573 147 146 141 
-0.14503 1.57755 3.92011 0 0 0 
-0.134699 1.58207 3.93134 0 0 0 
-0.123739 1.57937 3.92462 0 0 0 
-0.0618626 0.955243 2.37372 72 77 73 
-0.0562625 0.970581 2.41183 82 91 90 
-0.0492186 0.961777 2.38995 87 97 98 
-0.0426263 0.960452 2.38666 83 94 96 
-0.0360149 0.958143 2.38092 77 91 92 
-0.029512 0.958335 2.3814 73 89 89 
-0.0229985 0.958199 2.38106 81 96 99 
-0.0165296 0.960544 2.38689 88 102 105 
-0.0100241 0.962428 2.39157 87 101 104 
-0.00348209 0.96133 2.38884 89 103 106 
0.00304644 0.960705 2.38729 87 100 106 
0.00954935 0.95836 2.38146 91 104 110 
0.016048 0.957661 2.37973 91 104 110 
0.0225336 0.95681 2.37761 93 106 112 
0.0290457 0.957215 2.37862 93 107 110 
0.0355829 0.95815 2.38094 88 103 106 
0.042137 0.959178 2.38349 86 101 104 
0.0486503 0.959126 2.38337 86 101 104 
0.0550694 0.95745 2.3792 98 113 118 
0.0616644 0.958863 2.38271 106 121 128 
0.0682561 0.959958 2.38543 108 123 130 
0.0748904 0.961411 2.38904 107 125 129 
0.081474 0.962031 2.39058 107 122 125 
0.0885847 0.968321 2.40621 111 122 124 
0.0954095 0.970832 2.41245 110 120 119 
0.101816 0.969035 2.40799 98 104 100 
0.110403 0.986952 2.45251 147 152 145 
0.219546 1.57907 3.92388 106 104 92 
0.231146 1.58506 3.93876 114 110 99 
0.242489 1.58883 3.94813 110 106 97 
0.253317 1.58904 3.94866 118 116 104 
0.26436 1.59053 3.95237 112 110 98 
0.275525 1.59261 3.95754 132 133 119 
0.286068 1.59108 3.95373 100 101 85 
0.29728 1.59325 3.95911 123 124 106 
0.308485 1.59522 3.96401 118 121 102 
0.317688 1.58706 3.94374 120 123 104 
0.328296 1.58622 3.94165 116 119 102 
0.33971 1.5892 3.94907 47 50 33 
0.350915 1.59106 3.95369 104 107 90 
0.362707 1.59539 3.96443 142 143 127 
0.374591 1.59986 3.97554 139 137 124 
0.385128 1.59848 3.97213 138 136 123 
0.39716 1.60322 3.98389 125 126 112 
0.406227 1.59605 3.96609 113 114 100 
0.416285 1.59305 3.95862 81 82 66 
0.428126 1.59685 3.96807 123 126 109 
0.438103 1.59368 3.9602 107 110 93 
0.446475 1.58497 3.93855 105 106 92 
0.456049 1.58084 3.92827 80 81 67 
0.465775 1.57741 3.91975 54 55 39 
0.475034 1.57258 3.90777 89 90 74 
0.488868 1.58279 3.93312 106 104 89 
0.504275 1.59753 3.96976 116 117 101 
0.516729 1.6025 3.9821 129 130 116 
0.525088 1.59482 3.96303 155 153 140 
0.534696 1.59117 3.95397 141 139 127 
0.545093 1.58997 3.95098 151 149 137 
0.555475 1.58877 3.948 145 143 131 
0.566679 1.58993 3.95087 126 124 112 
0.577063 1.58878 3.94802 133 131 119 
0.587219 1.58706 3.94374 126 127 113 
0.596801 1.58388 3.93583 126 127 113 
0.608008 1.58504 3.93873 132 133 119 
0.621296 1.5915 3.95477 126 127 113 
0.635914 1.60108 3.97858 116 114 101 
0.647697 1.60333 3.98416 109 107 94 
0.66072 1.60851 3.99705 124 125 111 
0.671506 1.60818 3.99621 107 108 94 
0.682065 1.60732 3.99407 101 102 88 
0.690222 1.60091 3.97815 110 111 97 
0.7001 1.59863 3.9725 115 116 102 
0.710092 1.59668 3.96765 119 117 104 
0.718197 1.59061 3.95256 75 73 60 
0.732667 1.59861 3.97243 93 91 78 
0.746236 1.60443 3.9869 122 123 107 
0.760927 1.61247 4.00687 113 111 96 
0.767537 1.60339 3.98432 121 119 104 
0.778036 1.60258 3.98231 128 126 111 
0.795383 1.6157 4.01492 138 136 123 
0.80701 1.61701 4.01816 141 139 126 
0.812505 1.60616 3.99119 139 137 124 
0.821299 1.60203 3.98093 135 133 120 
0.835449 1.60832 3.99656 129 127 114 
0.847769 1.61097 4.00315 152 150 137 
0.854485 1.60304 3.98344 133 131 119 
0.870261 1.61209 4.00593 0 0 0 
0.868965 1.58968 3.95026 152 152 140 
0.900114 1.62645 4.04163 0 0 0 
0.892352 1.59287 3.95819 142 142 132 
0.906358 1.59849 3.97215 140 142 131 
0.919927 1.60322 3.98389 140 142 131 
0.929768 1.60141 3.97939 129 129 117 
0.941303 1.60253 3.98217 153 153 141 
0.957609 1.61165 4.00483 137 135 122 
0.970428 1.61476 4.01257 125 123 110 
0.980846 1.61385 4.01031 127 124 109 
0.995163 1.61931 4.02388 135 132 117 
1.00413 1.61604 4.01575 132 129 114 
1.0107 1.60901 3.99829 112 109 92 
1.0222 1.60992 4.00055 120 119 101 
1.0361 1.61453 4.01201 108 107 89 
1.04816 1.61622 4.01621 102 105 84 
1.05803 1.61453 4.01199 103 109 83 
1.0665 1.61075 4.00261 76 82 56 
1.06993 1.59953 3.97472 92 91 70 
1.07894 1.59678 3.9679 114 113 93 
1.09051 1.59783 3.9705 87 84 67 
1.10061 1.59673 3.96778 121 118 101 
1.1149 1.60168 3.98008 129 126 109 
1.12528 1.60097 3.97831 129 128 110 
1.13541 1.59992 3.97569 117 116 98 
1.15076 1.60618 3.99125 119 118 100 
1.16149 1.60593 3.99063 115 114 96 
1.17411 1.60827 3.99643 136 135 117 
1.18239 1.60469 3.98754 111 110 92 
1.1887 1.5985 3.97217 86 85 67 
1.2077 1.60936 3.99915 138 137 119 
1.22181 1.61356 4.00958 147 148 132 
1.23257 1.61329 4.00891 121 122 106 
1.23288 1.59948 3.97459 121 122 106 
1.25506 1.61403 4.01075 127 125 112 
1.26619 1.61423 4.01125 157 155 142 
1.26663 1.60093 3.97822 153 151 138 
1.2771 1.60042 3.97695 152 150 137 
1.28967 1.60254 3.9822 148 144 132 
1.3063 1.60961 3.99979 161 157 145 
1.33151 1.62705 4.04312 145 141 129 
1.33463 1.61744 4.01922 154 150 138 
1.33729 1.60743 3.99435 140 137 122 
1.35249 1.61254 4.00704 142 139 124 
1.35951 1.60788 3.99547 124 121 104 
1.37496 1.6132 4.00869 138 135 118 
1.37869 1.60478 3.98778 138 132 116 
1.38098 1.59483 3.96305 149 143 127 
1.40209 1.6066 3.9923 150 144 128 
1.42061 1.61526 4.01381 150 144 128 
1.43844 1.623 4.03304 151 145 129 
1.44689 1.62011 4.02585 150 144 128 
1.4583 1.62056 4.02699 136 130 114 
1.47202 1.62355 4.03442 155 149 133 
1.48872 1.62975 4.04982 141 135 119 
1.503 1.63324 4.05849 0 0 0 
1.49337 1.61089 4.00296 129 123 107 
1.50446 1.61104 4.00333 138 135 118 
1.52453 1.62074 4.02744 129 126 109 
1.54756 1.63343 4.05898 88 85 68 
1.54459 1.61869 4.02234 130 127 110 
1.56048 1.62378 4.035 112 109 92 
1.58109 1.63368 4.0596 117 115 100 
1.602 1.64375 4.08462 123 124 108 
1.61317 1.64375 4.08462 108 111 94 
1.60244 1.6216 4.02956 129 132 113 
1.60941 1.61753 4.01946 107 110 91 
1.63314 1.63024 4.05105 140 143 124 
1.65922 1.64512 4.08803 0 0 0 
1.64538 1.62049 4.02681 133 134 118 
1.65073 1.61495 4.01305 131 129 114 
1.66546 1.6186 4.02212 148 147 129 
1.72145 1.60928 3.99895 141 138 123 
1.75564 1.63088 4.05262 143 140 125 
1.76008 1.62475 4.03741 147 144 127 
1.78424 1.63679 4.06732 136 133 116 
1.79281 1.62441 4.03655 149 147 132 
1.8195 1.6385 4.07158 153 151 136 
1.83268 1.64034 4.07613 150 147 132 
1.83995 1.6369 4.06758 141 138 123 
1.84593 1.6226 4.03205 149 146 129 
1.89289 1.654 4.11009 153 152 134 
1.87921 1.63235 4.05629 141 140 122 
1.88792 1.63031 4.0512 131 130 112 
1.97269 1.67405 4.15989 137 138 120 
1.96222 1.65561 4.11409 143 144 126 
1.97075 1.65334 4.10843 131 132 114 
1.96877 1.64231 4.08104 134 135 117 
1.97993 1.64231 4.08104 141 138 121 
2.0516 1.69223 4.20509 146 143 126 
2.14833 1.69599 4.21443 136 133 116 
2.09942 1.64854 4.09652 135 132 115 
2.14027 1.6717 4.15407 139 136 119 
2.23059 1.6713 4.15307 146 143 126 
2.3041 1.70041 4.22542 154 151 134 
2.32072 1.70414 4.23466 140 137 120 
2.41524 1.73885 4.32093 141 140 122 
2.40898 1.66904 4.14745 114 111 96 
2.59073 1.70661 4.24081 136 135 117 
0.821818 0.50519 1.25536 135 140 134 
0.820096 0.502035 1.24752 132 138 134 
0.835656 0.509442 1.26593 138 143 139 
0.839117 0.509442 1.26593 0 0 0 
0.816836 0.493878 1.22725 0 0 0 
0.792224 0.477038 1.18541 116 118 115 
0.794491 0.476454 1.18396 107 109 108 
0.79841 0.476861 1.18497 92 96 97 
0.818114 0.486655 1.20931 110 114 117 
0.82142 0.486655 1.20931 93 98 101 
0.820437 0.484125 1.20302 103 108 112 
0.825414 0.485117 1.20548 83 88 92 
0.820798 0.480485 1.19397 0 0 0 
0.807011 0.470544 1.16927 92 100 102 
-1.20682 0.70269 1.73436 40 50 23 
-1.20208 0.70269 1.73436 85 73 51 
-1.19015 0.698468 1.72394 85 67 47 
-1.18072 0.695693 1.71709 102 86 63 
-1.17407 0.694537 1.71423 100 98 73 
-1.17046 0.695174 1.71581 55 70 41 
-1.16585 0.695219 1.71592 11 35 3 
-1.166 0.698122 1.72308 29 50 19 
-1.16129 0.698122 1.72308 33 57 25 
-1.159 0.699581 1.72668 48 72 38 
-1.15034 0.697191 1.72079 49 75 38 
-1.14871 0.699066 1.72541 60 91 50 
-1.15217 0.704061 1.73774 50 82 41 
-1.14959 0.705391 1.74102 58 90 49 
-1.14147 0.703324 1.73592 78 110 69 
-1.12757 0.697658 1.72194 87 118 77 
-1.12286 0.697658 1.72194 92 121 77 
-1.12519 0.702048 1.73277 51 78 35 
-1.12638 0.705761 1.74194 103 129 84 
-1.11557 0.701953 1.73254 107 133 86 
-1.0975 0.693529 1.71175 0 0 0 
-1.07779 0.683994 1.68821 104 130 85 
-1.06963 0.681729 1.68262 108 133 91 
-1.07624 0.68891 1.70035 94 116 78 
-1.0716 0.68891 1.70035 103 125 89 
-1.06595 0.688266 1.69876 101 120 92 
-1.08454 0.70333 1.73594 70 86 60 
-1.11956 0.729236 1.79988 32 47 24 
-1.13918 0.745291 1.8395 40 55 32 
-1.16702 0.770308 1.90125 108 126 102 
-1.15593 0.773316 1.90867 48 68 43 
-1.14166 0.767236 1.89367 59 79 52 
-1.13649 0.767236 1.89367 29 49 22 
-1.14243 0.774774 1.91227 37 57 30 
-1.15165 0.784619 1.93657 35 55 28 
-1.15353 0.789534 1.9487 43 61 35 
-1.14096 0.784554 1.93641 52 72 47 
-1.12961 0.780364 1.92607 61 79 55 
-1.115 0.773883 1.91007 75 93 69 
-1.11132 0.77496 1.91273 34 49 26 
-1.11029 0.777896 1.91998 50 63 43 
-1.08951 0.766968 1.893 80 92 72 
-2.2049 1.67122 4.12484 135 142 126 
-2.20601 1.68066 4.14814 137 141 126 
-2.08169 1.66287 4.10425 54 62 47 
-2.07197 1.66408 4.10722 58 67 50 
-1.9091 1.63046 4.02425 124 128 113 
-1.93714 1.6737 4.13098 94 96 82 
-1.85807 1.62433 4.00911 101 99 86 
-1.75698 1.63223 4.02861 144 140 129 
-1.74384 1.63024 4.02371 135 133 120 
-1.6748 1.61668 3.99024 132 134 123 
-1.63814 1.63453 4.03428 126 126 114 
-1.57568 1.60462 3.96046 130 128 113 
-1.57231 1.61226 3.97933 136 137 121 
-1.54143 1.60278 3.95592 121 122 108 
-1.52816 1.6002 3.94957 135 136 122 
-1.51887 1.60179 3.95348 112 114 101 
-1.50089 1.59417 3.93468 119 119 107 
-1.48389 1.58749 3.9182 112 110 98 
-1.46563 1.57937 3.89814 125 123 111 
-1.45718 1.58176 3.90404 138 134 123 
-1.42726 1.60817 3.96924 116 112 100 
-1.37585 1.57419 3.88535 169 162 154 
-1.37883 1.61499 3.98607 172 167 161 
-1.37267 1.62059 3.99989 163 160 153 
-1.36106 1.61979 3.99791 110 107 100 
-1.35141 1.62132 4.00168 52 54 43 
-1.33524 1.61499 3.98607 68 71 60 
-1.28847 1.59753 3.94297 85 87 74 
-1.27589 1.59528 3.93742 126 127 111 
-1.20003 1.58044 3.90079 107 108 90 
-1.1908 1.58234 3.90547 48 47 29 
-1.17195 1.57139 3.87844 43 40 25 
-1.18435 1.60251 3.95525 137 134 117 
-1.1794 1.61051 3.97501 140 134 118 
-1.16465 1.60516 3.96181 139 133 119 
-1.14295 1.59004 3.92448 142 136 122 
-1.12611 1.58146 3.90331 132 130 117 
-1.11859 1.58592 3.91432 120 118 105 
-1.11882 1.60157 3.95295 119 120 106 
-1.11162 1.60678 3.9658 86 89 72 
-1.09781 1.60244 3.95509 106 110 93 
-1.08313 1.59674 3.94103 105 112 94 
-1.07881 1.60636 3.96476 126 134 113 
-1.0643 1.60084 3.95114 120 127 109 
-1.05161 1.59796 3.94404 118 125 107 
-1.04095 1.59815 3.9445 99 103 86 
-1.02593 1.59158 3.92828 114 118 103 
-1.00696 1.57868 3.89645 123 126 109 
-1.00974 1.59996 3.94898 126 129 112 
-0.988797 1.58371 3.90885 131 132 116 
-0.976041 1.58035 3.90058 129 130 114 
-0.972559 1.59211 3.92959 118 116 103 
-0.967353 1.60127 3.95221 0 0 0 
-0.946194 1.58394 3.90943 150 146 134 
-0.934413 1.58209 3.90486 151 147 135 
-0.92488 1.58405 3.90969 165 161 149 
-0.91083 1.57822 3.89531 163 159 147 
-0.902589 1.58244 3.90573 137 133 121 
-0.891933 1.58248 3.90582 98 95 78 
-0.885399 1.58992 3.92419 99 93 77 
-0.870714 1.58273 3.90643 116 109 93 
-0.857868 1.57874 3.89659 76 69 53 
-0.850041 1.584 3.90959 81 75 59 
-0.840262 1.58572 3.91382 98 97 79 
-0.831751 1.5899 3.92414 99 100 82 
-0.818715 1.58543 3.91312 85 88 69 
-0.803666 1.57689 3.89204 107 110 91 
-0.795384 1.58158 3.90361 118 123 103 
-0.78706 1.58632 3.91529 114 119 99 
-0.775578 1.58472 3.91136 102 105 86 
-0.761886 1.57851 3.89603 111 114 95 
-0.754179 1.5847 3.91129 133 136 117 
-0.744271 1.58637 3.91542 114 117 98 
-0.73407 1.58746 3.91811 135 138 119 
-0.720726 1.58168 3.90384 126 129 110 
-0.711227 1.58429 3.9103 141 144 125 
-0.703686 1.59141 3.92787 122 121 103 
-0.694246 1.59439 3.93523 134 131 114 
-0.679705 1.58557 3.91344 145 144 126 
-0.667473 1.58193 3.90447 131 128 111 
-0.654738 1.57697 3.89222 134 131 114 
-0.646092 1.58185 3.90427 136 133 116 
-0.634136 1.57866 3.89639 134 131 114 
-0.624456 1.58112 3.90247 139 136 121 
-0.614791 1.5837 3.90884 134 131 116 
-0.605872 1.58834 3.92028 123 119 107 
-0.596056 1.59074 3.92621 124 120 108 
-0.586117 1.5929 3.93154 119 117 104 
-0.576793 1.59684 3.94127 121 119 106 
-0.567264 1.60035 3.94994 116 114 101 
-0.555167 1.59662 3.94073 126 124 111 
-0.542059 1.58977 3.92382 99 97 82 
-0.530465 1.58718 3.91742 120 118 103 
-0.520173 1.58845 3.92056 111 109 96 
-0.509497 1.58858 3.92088 120 121 107 
-0.499759 1.5917 3.92859 121 121 109 
-0.488696 1.59065 3.926 125 127 114 
-0.478254 1.59162 3.92839 98 99 85 
-0.466953 1.58971 3.92366 83 84 68 
-0.457028 1.5925 3.93056 47 48 32 
-0.445904 1.59115 3.92722 86 89 70 
-0.433536 1.58518 3.9125 100 105 85 
-0.421532 1.58028 3.90039 96 101 81 
-0.411254 1.58176 3.90404 65 70 50 
-0.402083 1.58769 3.91867 74 79 59 
-0.391374 1.5877 3.91872 117 122 100 
-0.380428 1.58673 3.91632 102 107 85 
-0.369685 1.58657 3.91592 99 104 82 
-0.359325 1.5881 3.91969 101 104 83 
-0.349431 1.59184 3.92893 109 112 93 
-0.33947 1.5955 3.93797 107 108 90 
-0.327654 1.59041 3.92539 112 113 97 
-0.316304 1.5873 3.91772 128 126 111 
-0.306905 1.59411 3.93454 129 127 112 
-0.29628 1.59481 3.93627 130 126 114 
-0.28499 1.59186 3.92897 143 139 127 
-0.273342 1.58659 3.91598 141 137 125 
-0.261892 1.5821 3.90488 156 152 140 
-0.251758 1.58551 3.91329 145 143 130 
-0.241192 1.58637 3.91543 138 136 123 
-0.230366 1.58553 3.91336 114 115 99 
-0.219102 1.58145 3.90328 119 122 105 
-0.207522 1.57455 3.88624 125 127 113 
-0.196881 1.57441 3.88591 123 121 108 
-0.185615 1.56897 3.87249 124 117 107 
-0.175122 1.56982 3.87458 129 124 118 
-0.165319 1.57735 3.89316 147 139 136 
-0.155278 1.58348 3.9083 145 140 137 
-0.144475 1.58219 3.90511 96 96 94 
-0.133728 1.58133 3.903 0 0 0 
-0.122861 1.5788 3.89675 0 0 0 
-0.0560257 0.973061 2.40168 80 85 88 
-0.049045 0.964895 2.38152 74 84 86 
-0.0424656 0.963333 2.37767 84 98 99 
-0.0361586 0.9685 2.39042 83 99 99 
-0.0294356 0.962348 2.37524 78 94 94 
-0.0229155 0.961228 2.37247 77 92 95 
-0.0164882 0.964645 2.38091 81 95 98 
-0.0100058 0.967201 2.38721 80 94 97 
-0.0034832 0.968169 2.3896 80 94 97 
0.00304372 0.966366 2.38515 79 93 96 
0.00954873 0.964808 2.38131 83 97 100 
0.0160467 0.964087 2.37953 87 101 102 
0.0225472 0.963892 2.37905 94 108 111 
0.0290827 0.964948 2.38165 94 105 109 
0.0356028 0.965197 2.38227 90 101 105 
0.0420883 0.964578 2.38074 85 99 102 
0.0485053 0.962764 2.37626 87 100 106 
0.0548461 0.960044 2.36955 104 119 124 
0.0614354 0.961791 2.37386 103 120 127 
0.0682766 0.96677 2.38615 110 127 134 
0.0749532 0.968753 2.39104 117 132 137 
0.0815325 0.969261 2.3923 105 119 122 
0.0886195 0.975281 2.40716 111 122 126 
0.0956382 0.97977 2.41824 105 115 114 
0.1019 0.976421 2.40997 101 107 103 
0.21765 1.57606 3.88999 131 127 116 
0.229176 1.58222 3.90519 124 120 111 
0.240191 1.58446 3.91071 129 126 117 
0.251632 1.5892 3.9224 137 135 123 
0.262439 1.58971 3.92366 127 127 115 
0.273288 1.59042 3.92542 137 135 122 
0.283417 1.58705 3.9171 144 142 127 
0.294459 1.58885 3.92154 92 91 73 
0.30606 1.59343 3.93285 96 94 79 
0.317891 1.59886 3.94625 108 106 91 
0.328255 1.5968 3.94116 117 115 102 
0.33866 1.59506 3.93687 111 109 96 
0.349281 1.59441 3.93528 134 135 121 
0.359381 1.5915 3.92808 137 138 124 
0.36966 1.58952 3.92321 145 143 130 
0.382247 1.5973 3.9424 146 142 130 
0.3942 1.60208 3.9542 139 137 124 
0.4043 1.59927 3.94727 115 116 102 
0.413926 1.59478 3.93619 103 106 89 
0.425865 1.59921 3.94711 85 88 71 
0.434474 1.59122 3.9274 123 124 108 
0.443045 1.58348 3.90829 88 89 75 
0.452733 1.58 3.89971 53 51 39 
0.461932 1.57502 3.8874 49 47 34 
0.471475 1.5714 3.87849 103 101 89 
0.484787 1.58023 3.90028 98 99 85 
0.499969 1.59465 3.93586 101 102 86 
0.512484 1.60013 3.94939 120 121 105 
0.523498 1.6008 3.95103 132 133 119 
0.531992 1.59388 3.93397 123 121 108 
0.541602 1.59052 3.92567 148 144 133 
0.552891 1.59212 3.92963 108 104 93 
0.564139 1.59355 3.93316 118 114 103 
0.574971 1.59377 3.9337 143 141 129 
0.584707 1.59101 3.92687 136 134 121 
0.594473 1.58842 3.92048 151 149 136 
0.606266 1.59124 3.92744 140 138 123 
0.617016 1.59127 3.92753 141 139 126 
0.630781 1.59895 3.94647 134 135 121 
0.640301 1.59579 3.93867 145 146 132 
0.652173 1.59849 3.94535 140 141 127 
0.663871 1.60069 3.95078 110 111 95 
0.674208 1.59959 3.94806 118 119 103 
0.680128 1.58821 3.91998 115 118 101 
0.694942 1.59763 3.94323 135 138 121 
0.705993 1.59825 3.94475 106 109 92 
0.714812 1.59387 3.93393 147 150 133 
0.726762 1.59649 3.94041 136 137 121 
0.739452 1.60065 3.95066 135 136 120 
0.749744 1.59956 3.94798 139 140 124 
0.755904 1.58982 3.92393 86 87 69 
0.769301 1.59535 3.9376 134 135 119 
0.792156 1.62008 3.99863 120 121 105 
0.7939 1.60155 3.95288 138 139 125 
0.805957 1.60404 3.95903 143 141 128 
0.814164 1.5989 3.94635 140 138 125 
0.824706 1.59842 3.94517 145 143 128 
0.837411 1.60209 3.95423 146 144 129 
0.8553 1.61546 3.98724 0 0 0 
0.848072 1.58166 3.90379 156 154 141 
0.86127 1.58631 3.91527 150 148 136 
0.872045 1.58644 3.9156 140 138 126 
0.883749 1.58824 3.92003 145 143 131 
0.897439 1.59351 3.93306 159 159 147 
0.912115 1.6004 3.95005 141 141 129 
0.925122 1.60423 3.95951 138 136 124 
0.937152 1.6063 3.96461 143 141 128 
0.951939 1.61299 3.98112 123 119 107 
0.965681 1.61778 3.99294 131 127 115 
0.970604 1.60785 3.96844 142 136 122 
0.989793 1.62151 4.00216 136 130 116 
0.99562 1.61323 3.98171 146 140 126 
1.00535 1.61137 3.97713 119 113 99 
1.01565 1.61046 3.97489 121 118 101 
1.03241 1.61971 3.99772 121 118 103 
1.04329 1.61963 3.99752 101 102 84 
1.05251 1.61702 3.99108 108 112 89 
1.05409 1.60283 3.95605 88 90 69 
1.06141 1.59756 3.94305 124 121 102 
1.07121 1.59611 3.93946 127 124 105 
1.08495 1.60049 3.95028 128 122 106 
1.09539 1.59996 3.94896 113 107 91 
1.10865 1.60352 3.95777 148 142 126 
1.12157 1.60654 3.96522 136 133 116 
1.13441 1.60938 3.97221 120 117 100 
1.1423 1.6052 3.96189 104 101 84 
1.15292 1.6049 3.96116 124 121 104 
1.15892 1.59825 3.94476 146 143 126 
1.16962 1.59814 3.94447 136 133 116 
1.17854 1.59561 3.93823 140 137 120 
1.20284 1.61376 3.98303 127 124 107 
1.21535 1.61593 3.98838 137 135 120 
1.21761 1.60453 3.96025 145 143 128 
1.22429 1.59912 3.9469 143 141 126 
1.24157 1.60752 3.96763 152 150 137 
1.24711 1.60071 3.95082 165 163 150 
1.25578 1.59799 3.94412 147 145 130 
1.26435 1.5952 3.93723 141 139 124 
1.27617 1.59653 3.94051 157 154 139 
1.29507 1.60662 3.9654 149 146 131 
1.31182 1.61388 3.98332 143 140 125 
1.32826 1.62066 4.00005 155 152 137 
1.33254 1.6126 3.98017 155 152 135 
1.33901 1.60731 3.96711 149 146 129 
1.34583 1.60251 3.95526 150 147 130 
1.36388 1.61106 3.97637 125 122 105 
1.37113 1.60682 3.9659 137 131 115 
1.38119 1.60591 3.96366 152 146 130 
1.39225 1.60616 3.96428 157 151 135 
1.4174 1.62256 4.00475 138 135 118 
1.42927 1.6236 4.00732 136 133 116 
1.43826 1.62138 4.00184 136 133 116 
1.45164 1.62411 4.00858 126 123 106 
1.4619 1.62334 4.00668 156 153 136 
1.47556 1.62632 4.01404 144 141 124 
1.48503 1.62468 4.00997 146 143 126 
1.49909 1.62804 4.01827 135 132 115 
1.48353 1.59942 3.94765 110 107 90 
1.52139 1.6284 4.01916 113 110 93 
1.52412 1.61962 3.9975 85 84 66 
1.53778 1.6225 4.0046 121 119 104 
1.53932 1.61264 3.98027 85 83 68 
1.5624 1.62534 4.0116 120 121 105 
1.59219 1.64478 4.0596 119 122 105 
1.60482 1.64635 4.06347 136 139 122 
1.60596 1.6362 4.03841 101 104 87 
1.6041 1.62314 4.00619 126 129 110 
1.60158 1.6096 3.97277 121 124 105 
1.62109 1.61824 3.99408 124 127 108 
1.63753 1.61292 3.98097 129 130 112 
1.62807 1.56208 3.85547 136 137 119 
1.72684 1.62528 4.01146 145 142 127 
1.74281 1.62996 4.02301 0 0 0 
1.73183 1.60953 3.97259 152 149 134 
1.793 1.64574 4.06196 144 141 124 
1.79464 1.63711 4.04066 148 145 128 
1.78557 1.61887 3.99564 146 143 126 
1.79945 1.62154 4.00222 147 144 127 
1.80285 1.61478 3.98555 143 140 123 
1.83014 1.62938 4.02158 148 145 128 
1.90019 1.65204 4.07752 143 142 124 
1.89707 1.63971 4.04709 150 149 131 
1.90382 1.636 4.03793 157 156 138 
1.91452 1.63572 4.03722 146 147 129 
1.95081 1.65717 4.09017 148 149 131 
1.94555 1.64328 4.0559 154 155 137 
2.14051 1.67436 4.1326 0 0 0 
2.12165 1.65089 4.07468 132 129 112 
2.14097 1.65723 4.09031 139 136 119 
2.27609 1.72576 4.25947 148 147 129 
2.27337 1.69764 4.19007 149 146 129 
2.28988 1.7014 4.19935 144 141 124 
2.36634 1.6986 4.19243 150 148 133 
2.3778 1.6986 4.19243 152 150 135 
2.59252 1.71939 4.24375 127 124 107 
0.826774 0.511689 1.26294 0 0 0 
0.807978 0.497977 1.22909 135 142 135 
0.811338 0.497977 1.22909 140 146 142 
0.872094 0.53306 1.31568 0 0 0 
0.811275 0.493848 1.2189 134 138 137 
0.81457 0.493825 1.21884 0 0 0 
0.783572 0.473098 1.16769 120 121 123 
0.801534 0.481979 1.18961 108 109 113 
0.804786 0.481979 1.18961 82 86 89 
0.81571 0.486555 1.2009 102 107 111 
0.820437 0.487413 1.20302 104 109 113 
0.819276 0.48478 1.19652 106 111 115 
0.822408 0.484698 1.19632 95 103 106 
0.821326 0.482144 1.19001 89 97 99 
-1.20923 0.703314 1.72426 35 50 21 
-1.20984 0.706427 1.73189 37 52 23 
-1.19821 0.702384 1.72198 50 56 30 
-1.1935 0.702384 1.72198 84 71 52 
-1.18525 0.700287 1.71684 80 65 46 
-1.17155 0.694948 1.70375 81 68 49 
-1.16477 0.693685 1.70065 99 98 77 
-1.15861 0.692776 1.69843 15 27 3 
-1.16585 0.69991 1.71592 8 23 0 
-1.16487 0.702151 1.72141 38 58 31 
-1.16017 0.702151 1.72141 32 53 22 
-1.15643 0.702742 1.72286 36 53 21 
-1.15221 0.703037 1.72358 50 67 33 
-1.15238 0.70603 1.73092 117 139 101 
-1.1512 0.708216 1.73628 102 133 91 
-1.14599 0.707927 1.73557 0 0 0 
-1.12807 0.699755 1.71554 84 113 69 
-1.11055 0.691766 1.69595 87 116 70 
-1.10592 0.691766 1.69595 74 102 53 
-1.11323 0.69927 1.71435 72 99 48 
-1.10651 0.697991 1.71121 0 0 0 
-1.06995 0.677794 1.6617 79 106 53 
-1.06471 0.67735 1.66061 90 117 64 
-1.07779 0.688609 1.68821 88 114 66 
-1.0904 0.699662 1.71531 0 0 0 
-1.07172 0.690644 1.6932 102 127 88 
-1.1613 0.768282 1.88354 56 72 46 
-1.14846 0.773506 1.89635 19 37 13 
-1.15035 0.778288 1.90807 34 52 26 
-1.14513 0.778288 1.90807 29 47 21 
-1.14674 0.782951 1.9195 50 66 40 
-1.14246 0.783613 1.92113 41 57 30 
-1.13811 0.784236 1.92265 44 60 34 
-1.14096 0.789848 1.93641 0 0 0 
-1.12396 0.781703 1.91644 63 78 59 
-1.11292 0.777646 1.9065 80 93 75 
-1.11065 0.779715 1.91157 49 60 43 
-1.10469 0.779196 1.9103 102 110 95 
-1.10752 0.784906 1.9243 91 99 84 
-2.16677 1.6534 4.05351 126 130 115 
-2.10001 1.65319 4.053 122 125 114 
-2.08893 1.65319 4.053 120 122 111 
-2.05807 1.63745 4.01441 97 103 91 
-2.06617 1.6527 4.05181 108 114 102 
-1.97985 1.63629 4.01157 38 53 32 
-2.02294 1.69063 4.14479 80 93 73 
-1.92093 1.66121 4.07266 81 83 70 
-1.93125 1.67987 4.11841 147 149 135 
-1.80598 1.63774 4.01512 69 63 51 
-1.75208 1.63866 4.01738 141 137 126 
-1.74195 1.64987 4.04486 111 107 95 
-1.64257 1.58595 3.88814 115 117 104 
-1.66067 1.61386 3.95658 137 139 128 
-1.65529 1.61918 3.96962 159 161 150 
-1.56134 1.57904 3.87121 102 98 87 
-1.55836 1.58678 3.89019 121 117 105 
-1.55605 1.59531 3.91111 132 128 116 
-1.51393 1.60735 3.94063 87 91 76 
-1.47364 1.58717 3.89115 112 114 100 
-1.4021 1.56666 3.84085 114 112 97 
-1.42183 1.61287 3.95415 103 101 86 
-1.35001 1.55504 3.81238 81 79 66 
-1.35181 1.56922 3.84715 56 54 42 
-1.35396 1.58404 3.88348 60 57 48 
-1.36387 1.60826 3.94284 29 26 17 
-1.35581 1.62442 3.98247 54 56 45 
-1.33221 1.60906 3.94482 0 0 0 
-1.30297 1.58659 3.88972 124 126 115 
-1.31462 1.61396 3.95682 0 0 0 
-1.2753 1.57867 3.87032 97 99 88 
-1.2714 1.58701 3.89075 59 59 49 
-1.2007 1.56418 3.83479 129 128 110 
-1.19923 1.57603 3.86383 164 165 147 
-1.19512 1.58459 3.88482 147 146 128 
-1.17534 1.57233 3.85476 84 81 64 
-1.17432 1.58518 3.88627 167 164 147 
-1.16296 1.58418 3.88383 170 163 147 
-1.15861 1.5928 3.90494 141 134 118 
-1.1611 1.61106 3.94973 144 135 120 
-1.13107 1.58412 3.88367 113 105 92 
-1.11834 1.58113 3.87635 139 133 121 
-1.07666 1.58217 3.8789 90 94 79 
-1.03245 1.59579 3.91229 120 122 108 
-1.01739 1.58897 3.89557 151 153 139 
-0.999604 1.57772 3.86797 142 140 125 
-0.990709 1.5804 3.87454 133 131 118 
-0.979857 1.57998 3.87351 139 135 123 
-0.975215 1.58967 3.89728 146 140 128 
-0.968712 1.59651 3.91405 151 145 133 
-0.951077 1.58495 3.88572 149 142 132 
-0.93744 1.57988 3.87326 159 152 142 
-0.92604 1.57849 3.86987 158 154 143 
-0.913849 1.57571 3.86306 164 160 149 
-0.904394 1.57764 3.86778 123 121 108 
-0.893503 1.57708 3.86641 124 122 109 
-0.886343 1.58317 3.88135 136 133 118 
-0.876133 1.5839 3.88312 110 107 92 
-0.867581 1.58767 3.89238 95 92 77 
-0.855933 1.58581 3.88781 105 104 86 
-0.846634 1.5883 3.89392 100 99 81 
-0.837241 1.59068 3.89975 107 108 90 
-0.826642 1.5908 3.90004 116 119 100 
-0.812114 1.58326 3.88157 100 103 84 
-0.803027 1.58627 3.88895 141 144 125 
-0.792058 1.5856 3.88729 144 147 128 
-0.782216 1.58719 3.89119 135 138 119 
-0.769609 1.58314 3.88126 97 102 82 
-0.753692 1.57207 3.85413 128 131 112 
-0.748138 1.58261 3.87996 139 140 122 
-0.738426 1.58453 3.88467 143 144 126 
-0.725327 1.57913 3.87144 144 145 127 
-0.71595 1.5818 3.87797 149 146 129 
-0.709124 1.59026 3.89873 135 134 116 
-0.70263 1.59974 3.92197 117 116 98 
-0.689978 1.59528 3.91103 121 118 101 
-0.676105 1.58781 3.89272 128 125 108 
-0.664774 1.58617 3.88869 137 134 117 
-0.652802 1.58291 3.88071 141 138 121 
-0.636956 1.57001 3.84906 145 142 127 
-0.629499 1.57769 3.8679 131 128 113 
-0.619937 1.58027 3.87423 122 118 106 
-0.611067 1.58473 3.88517 145 141 129 
-0.602217 1.5894 3.89663 130 126 114 
-0.591488 1.5892 3.89613 129 125 113 
-0.582787 1.59454 3.9092 142 136 124 
-0.57419 1.60036 3.92348 121 117 105 
-0.562651 1.59805 3.91782 124 122 109 
-0.550383 1.59354 3.90677 130 128 115 
-0.538826 1.59095 3.90042 133 131 116 
-0.527855 1.59002 3.89814 143 144 128 
-0.516344 1.5874 3.8917 139 137 122 
-0.506306 1.58928 3.89633 122 120 105 
-0.494725 1.58631 3.88903 135 133 118 
-0.48566 1.59144 3.90161 123 121 108 
-0.475913 1.59452 3.90915 126 124 109 
-0.465589 1.59576 3.9122 122 123 107 
-0.454401 1.59403 3.90796 86 89 72 
-0.442612 1.59006 3.89823 102 106 89 
-0.431832 1.5896 3.89711 110 114 97 
-0.419471 1.58316 3.88132 131 135 118 
-0.410123 1.58805 3.89331 120 127 109 
-0.399753 1.58914 3.89597 126 131 111 
-0.389051 1.58893 3.89545 119 124 102 
-0.377867 1.58668 3.88995 117 122 100 
-0.36807 1.5903 3.89882 96 104 83 
-0.356597 1.58667 3.88993 89 94 74 
-0.347309 1.59285 3.90507 113 118 98 
-0.336071 1.59019 3.89855 109 112 95 
-0.325733 1.59175 3.90237 107 108 92 
-0.316158 1.59727 3.91592 117 115 102 
-0.305822 1.5992 3.92065 130 128 115 
-0.294649 1.59674 3.91461 66 64 51 
-0.282244 1.58716 3.89112 125 121 109 
-0.271113 1.58428 3.88405 121 117 105 
-0.26098 1.58723 3.89129 120 116 104 
-0.251077 1.59189 3.90271 137 135 120 
-0.240383 1.59172 3.9023 132 133 117 
-0.229481 1.5901 3.89832 103 104 86 
-0.217244 1.57862 3.87018 104 105 87 
-0.20723 1.58294 3.88078 107 110 93 
-0.196185 1.57943 3.87217 125 123 108 
-0.185177 1.57583 3.86336 120 114 102 
-0.174333 1.57329 3.85711 112 108 99 
-0.164329 1.57848 3.86984 115 108 102 
-0.154944 1.59074 3.89989 149 145 142 
-0.144466 1.59276 3.90485 92 93 88 
-0.133243 1.58624 3.88886 0 0 0 
-0.122129 1.57999 3.87355 0 0 0 
-0.0556735 0.973469 2.38658 76 84 86 
-0.0486783 0.964143 2.36372 84 94 96 
-0.0427189 0.975617 2.39185 84 98 99 
-0.0361672 0.975267 2.39099 82 98 98 
-0.0295804 0.973609 2.38692 80 96 96 
-0.0229561 0.969428 2.37668 82 97 100 
-0.0164875 0.971114 2.38081 85 99 102 
-0.00998337 0.971545 2.38187 80 94 97 
-0.00348117 0.974131 2.3882 78 92 95 
0.00304843 0.974391 2.38884 78 92 95 
0.00957048 0.973529 2.38673 76 90 93 
0.0160763 0.972382 2.38392 82 96 97 
0.0225923 0.972339 2.38381 89 103 106 
0.0291331 0.97314 2.38578 94 105 111 
0.03563 0.972453 2.38409 90 101 105 
0.0420877 0.971071 2.3807 86 100 103 
0.0485448 0.97005 2.3782 88 101 107 
0.0550193 0.969574 2.37703 95 110 115 
0.0615256 0.969702 2.37735 109 126 133 
0.068004 0.969407 2.37662 113 130 137 
0.074798 0.973269 2.38609 119 134 139 
0.0819395 0.980672 2.40424 105 119 122 
0.0884765 0.980277 2.40327 104 115 117 
0.0954061 0.983987 2.41237 100 110 109 
0.206068 1.57944 3.87218 132 128 117 
0.21635 1.57722 3.86675 142 140 128 
0.22712 1.57861 3.87015 126 122 111 
0.23873 1.58544 3.88691 130 128 116 
0.250421 1.59222 3.90352 125 123 110 
0.261143 1.59253 3.90428 130 128 115 
0.271074 1.58818 3.89361 140 138 123 
0.281272 1.58566 3.88745 139 137 122 
0.29246 1.58871 3.89492 124 121 106 
0.304991 1.59858 3.91911 104 102 87 
0.317231 1.60631 3.93806 89 87 72 
0.327744 1.60507 3.93503 107 105 92 
0.337423 1.59995 3.92249 100 98 85 
0.3469 1.59423 3.90845 134 132 120 
0.35697 1.59149 3.90173 136 132 121 
0.367346 1.59023 3.89864 107 100 90 
0.377731 1.58908 3.89583 118 111 101 
0.388762 1.59064 3.89965 105 101 90 
0.401435 1.59865 3.9193 122 120 108 
0.412613 1.60045 3.92371 100 100 88 
0.423058 1.59939 3.9211 111 111 99 
0.431211 1.58992 3.8979 132 130 117 
0.440216 1.58398 3.88334 68 66 54 
0.450365 1.58234 3.87931 71 69 57 
0.459567 1.57753 3.8675 91 87 76 
0.470571 1.57897 3.87105 40 36 27 
0.483148 1.58552 3.8871 134 132 120 
0.497783 1.59839 3.91865 121 119 106 
0.509286 1.60088 3.92475 125 123 108 
0.519851 1.60037 3.92351 141 139 126 
0.529007 1.59563 3.9119 126 123 108 
0.539554 1.5952 3.91083 130 126 114 
0.550276 1.59529 3.91105 121 117 105 
0.561344 1.59636 3.91367 121 117 105 
0.570546 1.59218 3.90343 147 143 131 
0.580155 1.58927 3.8963 132 129 114 
0.592549 1.59396 3.90779 127 124 109 
0.603399 1.5944 3.90887 126 123 108 
0.612721 1.59086 3.90019 136 133 118 
0.621807 1.58684 3.89033 141 139 124 
0.634084 1.59095 3.90042 138 136 123 
0.642111 1.58445 3.88448 123 124 108 
0.650987 1.58022 3.8741 144 147 130 
0.6661 1.59102 3.90059 126 129 110 
0.678164 1.59431 3.90866 128 131 112 
0.688288 1.59301 3.90547 97 100 81 
0.700094 1.59559 3.91178 73 74 56 
0.711153 1.59641 3.91379 101 102 84 
0.71889 1.58986 3.89773 117 118 100 
0.730991 1.59301 3.90545 135 138 119 
0.742901 1.59566 3.91195 98 101 82 
0.75264 1.59363 3.90699 88 91 72 
0.761699 1.59025 3.89869 99 104 84 
0.77367 1.59295 3.90531 100 105 85 
0.785432 1.59515 3.91072 87 90 71 
0.798918 1.60076 3.92445 110 109 91 
0.808839 1.59916 3.92054 128 127 109 
0.818871 1.59782 3.91726 138 135 118 
0.830625 1.59983 3.92219 144 141 124 
0.842285 1.60162 3.92657 136 133 118 
0.849968 1.59589 3.91252 139 136 121 
0.85701 1.58911 3.89591 145 141 129 
0.86956 1.59259 3.90444 156 154 141 
0.882223 1.59619 3.91326 156 152 140 
0.892962 1.59626 3.91344 162 158 146 
0.910825 1.60892 3.94447 136 132 120 
0.919712 1.60561 3.93635 135 131 119 
0.931056 1.60661 3.93882 143 140 125 
0.946154 1.614 3.95693 116 110 96 
0.958917 1.61728 3.96497 149 143 129 
0.969334 1.61658 3.96325 131 125 111 
