0.322774 0.554943 2.25037 126 142 165 
0.328651 0.554478 2.24848 129 145 168 
0.334574 0.554108 2.24698 146 162 185 
0.340784 0.554218 2.24743 163 179 204 
0.346409 0.553389 2.24407 167 183 208 
0.352895 0.553939 2.2463 184 200 225 
0.358887 0.553711 2.24537 179 195 220 
0.36535 0.554202 2.24737 190 204 230 
0.371033 0.553516 2.24458 132 147 170 
0.377426 0.553891 2.24611 148 163 186 
0.383224 0.553398 2.2441 155 171 194 
0.389138 0.553083 2.24283 158 174 197 
0.394898 0.552565 2.24073 163 180 200 
0.400991 0.552519 2.24054 158 175 195 
0.407353 0.552841 2.24185 169 184 205 
0.413343 0.552655 2.24109 170 185 204 
0.420012 0.55337 2.24399 160 177 195 
0.425392 0.55239 2.24002 154 171 189 
0.4316 0.552498 2.24046 151 168 186 
0.437669 0.552428 2.24017 150 167 185 
0.443124 0.551595 2.23679 155 172 190 
0.449377 0.551764 2.23748 160 176 192 
0.455104 0.551292 2.23557 172 189 207 
0.46049 0.550425 2.23205 185 201 217 
0.464889 0.548416 2.2239 189 200 220 
0.469621 0.546848 2.21754 193 201 220 
0.475141 0.546224 2.21501 192 195 202 
0.508473 0.25992 1.05401 176 178 167 
0.512756 0.260632 1.0569 187 188 180 
0.523908 0.264808 1.07383 192 192 184 
0.543941 0.273402 1.10868 198 198 188 
0.549154 0.274493 1.11311 0 0 0 
0.542576 0.26971 1.09371 198 195 186 
0.548688 0.271254 1.09997 184 179 173 
0.54996 0.270401 1.09651 113 108 104 
0.552367 0.270112 1.09534 144 139 135 
0.554362 0.269626 1.09337 73 69 66 
0.557283 0.269593 1.09324 92 88 85 
0.558689 0.268831 1.09015 115 114 112 
0.561669 0.268831 1.09015 139 137 140 
0.564616 0.268815 1.09008 154 152 157 
0.56593 0.268026 1.08688 176 175 180 
0.569412 0.268267 1.08786 183 183 185 
0.574444 0.269232 1.09177 89 85 84 
0.599414 0.279482 1.13334 190 187 182 
0.610513 0.283194 1.14839 148 148 138 
0.616995 0.284736 1.15464 94 91 82 
0.621268 0.285249 1.15672 188 188 178 
0.632678 0.283278 1.14873 0 0 0 
0.627782 0.279698 1.13421 197 193 184 
0.628487 0.278636 1.12991 58 54 45 
0.645888 0.28495 1.15551 135 131 120 
0.661906 0.290595 1.1784 184 182 170 
0.667643 0.291694 1.18286 192 190 178 
0.667912 0.290406 1.17763 119 119 107 
0.686927 0.290278 1.17712 161 156 150 
0.687707 0.289253 1.17296 154 149 143 
0.690681 0.289155 1.17256 47 42 38 
0.687643 0.286554 1.16201 104 99 95 
0.687289 0.285089 1.15608 76 73 68 
0.685842 0.283187 1.14836 80 79 74 
0.688017 0.28279 1.14675 85 85 83 
0.689396 0.282072 1.14384 83 84 79 
0.698421 0.284474 1.15358 90 91 85 
0.736106 0.289371 1.17344 91 92 87 
0.732757 0.286804 1.16303 92 91 86 
0.721027 0.270477 1.09682 0 0 0 
0.717396 0.268 1.08678 0 0 0 
0.657342 0.244553 0.991696 61 60 56 
0.660053 0.244553 0.991696 62 61 56 
0.664852 0.245323 0.99482 62 61 56 
0.74964 0.272156 1.10363 0 0 0 
0.736544 0.26633 1.08 111 115 118 
0.739496 0.26633 1.08 92 95 100 
0.752829 0.270053 1.0951 120 124 127 
-0.917117 0.578734 2.32112 117 133 148 
-0.908281 0.577151 2.31477 118 136 146 
-0.908876 0.581582 2.33254 114 133 140 
-0.901989 0.581253 2.33122 116 135 142 
-0.888535 0.576657 2.31279 111 131 138 
-0.877989 0.578039 2.31833 118 138 147 
-0.874458 0.5799 2.32579 119 139 150 
-0.851153 0.581354 2.33162 112 134 145 
-0.845428 0.5818 2.33341 113 135 148 
-0.841951 0.583813 2.34148 111 135 147 
-0.835697 0.583915 2.34189 110 134 146 
-0.80879 0.58298 2.33814 115 135 146 
-0.808244 0.587227 2.35518 112 132 143 
-0.803075 0.588156 2.3589 114 134 145 
-0.795705 0.587476 2.35618 114 134 145 
-0.791362 0.589038 2.36244 114 134 145 
-0.784102 0.588436 2.36003 112 134 147 
-0.773505 0.5853 2.34745 113 135 148 
-0.768484 0.586366 2.35172 113 135 148 
-0.762601 0.586786 2.35341 113 135 148 
-0.757639 0.587928 2.35799 113 136 150 
-0.749486 0.586591 2.35263 112 135 149 
-0.74386 0.587228 2.35518 112 135 149 
-0.73756 0.587338 2.35562 113 136 150 
-0.730657 0.586965 2.35413 113 136 152 
-0.723518 0.586396 2.35184 117 141 153 
-0.716998 0.586321 2.35155 118 140 153 
-0.709632 0.585548 2.34844 112 132 143 
-0.707225 0.588889 2.36184 130 148 158 
-0.702971 0.590741 2.36927 137 152 159 
-0.699551 0.593334 2.37967 127 142 149 
-0.6869 0.588072 2.35857 135 146 150 
-0.67985 0.587552 2.35648 137 148 152 
-0.672838 0.587054 2.35449 135 146 152 
-0.667219 0.587774 2.35737 123 134 140 
-0.661364 0.588299 2.35947 126 140 151 
-0.654927 0.58831 2.35952 119 137 151 
-0.648746 0.588556 2.36051 116 138 151 
-0.639969 0.586426 2.35196 109 132 146 
-0.633596 0.586478 2.35217 109 132 148 
-0.627704 0.586982 2.35419 111 137 152 
-0.620925 0.586658 2.35289 114 140 155 
-0.613446 0.585658 2.34889 118 146 160 
-0.607823 0.586428 2.35197 113 140 157 
-0.601408 0.586443 2.35203 116 143 160 
-0.59532 0.58678 2.35338 115 141 158 
-0.586615 0.584516 2.34431 113 139 156 
-0.580768 0.585082 2.34657 115 141 158 
-0.574445 0.585176 2.34695 113 139 156 
-0.569423 0.586612 2.35271 113 139 154 
-0.562795 0.586408 2.35189 114 140 155 
-0.556892 0.586963 2.35412 114 140 157 
-0.549747 0.586206 2.35108 113 139 156 
-0.54306 0.585926 2.34996 111 137 152 
-0.537387 0.586745 2.35325 109 135 150 
-0.529927 0.585611 2.3487 109 135 150 
-0.52273 0.584743 2.34522 110 136 151 
-0.516746 0.585227 2.34715 110 138 152 
-0.509872 0.584702 2.34505 114 140 155 
-0.503008 0.584176 2.34294 116 142 157 
-0.495419 0.582784 2.33736 110 136 151 
-0.489312 0.58312 2.3387 115 141 156 
-0.483642 0.583994 2.34221 108 135 152 
-0.477689 0.584545 2.34442 108 135 152 
-0.469945 0.582888 2.33777 110 137 154 
-0.463902 0.583326 2.33953 113 139 154 
-0.457897 0.583825 2.34153 112 135 151 
-0.450836 0.582971 2.33811 104 121 137 
-0.443227 0.581374 2.3317 99 113 124 
-0.435802 0.579977 2.3261 91 101 110 
-0.430388 0.581252 2.33121 167 176 183 
-0.421316 0.577553 2.31638 159 168 175 
-0.402321 0.55993 2.2457 0 0 0 
-0.391412 0.553188 2.21866 169 183 192 
-0.383417 0.550418 2.20755 83 99 112 
-0.375596 0.547813 2.1971 104 121 131 
-0.36729 0.544405 2.18343 98 115 125 
-0.357732 0.538997 2.16174 91 108 118 
-0.349611 0.535609 2.14815 108 125 135 
-0.344975 0.537535 2.15588 119 133 144 
-0.337904 0.53567 2.1484 118 134 147 
-0.332167 0.535889 2.14928 119 135 148 
-0.325921 0.53528 2.14683 116 132 145 
-0.320939 0.536764 2.15278 117 133 146 
-0.314955 0.536596 2.15211 118 134 147 
-0.308639 0.535844 2.1491 116 132 145 
-0.301993 0.53448 2.14363 117 133 146 
-0.295902 0.534063 2.14195 117 133 146 
-0.29035 0.534622 2.1442 114 130 143 
-0.2846 0.534833 2.14504 114 130 143 
-0.27882 0.534993 2.14568 115 131 144 
-0.272843 0.534776 2.14481 110 128 140 
-0.267111 0.535038 2.14587 116 134 146 
-0.261446 0.535452 2.14753 119 137 149 
-0.256024 0.536392 2.15129 123 141 153 
-0.25079 0.537779 2.15686 122 138 151 
-0.245154 0.538352 2.15916 123 139 152 
-0.240045 0.540136 2.16631 124 140 153 
-0.233836 0.539476 2.16366 119 137 151 
-0.227863 0.539339 2.16311 125 143 157 
-0.222081 0.539658 2.16439 127 146 160 
-0.217874 0.543926 2.18151 122 141 156 
-0.213569 0.548183 2.19858 122 144 158 
-0.209696 0.553827 2.22122 129 148 163 
-0.206934 0.562832 2.25734 108 127 142 
-0.201983 0.566252 2.27105 100 122 136 
-0.195291 0.564853 2.26544 167 189 203 
-0.190397 0.568734 2.28101 121 143 157 
-0.185907 0.574127 2.30264 65 88 104 
-0.179994 0.575345 2.30752 63 86 102 
-0.173788 0.575684 2.30888 105 124 139 
-0.166558 0.57253 2.29623 126 142 155 
-0.16037 0.572849 2.29751 36 46 56 
-0.153789 0.571734 2.29304 25 34 39 
-0.147766 0.572683 2.29685 185 193 195 
-0.14089 0.570268 2.28716 181 189 192 
-0.135016 0.57187 2.29359 142 151 156 
-0.128921 0.572651 2.29672 90 101 107 
-0.122886 0.573789 2.30128 101 115 124 
-0.116829 0.574938 2.30589 103 119 132 
-0.110443 0.574512 2.30418 110 128 140 
-0.10406 0.57405 2.30233 112 132 143 
-0.0978169 0.574348 2.30352 112 131 145 
-0.0916333 0.575061 2.30638 110 129 143 
-0.085421 0.575687 2.30889 108 128 139 
-0.079041 0.575191 2.30691 111 131 142 
-0.0726742 0.574715 2.305 111 130 144 
-0.0662183 0.573376 2.29963 111 130 144 
-0.0598456 0.572553 2.29632 111 130 144 
-0.0535376 0.572228 2.29502 110 129 143 
-0.0473727 0.573549 2.30032 114 133 147 
-0.0411372 0.574289 2.30329 110 132 145 
-0.0348539 0.574509 2.30417 107 129 142 
-0.028509 0.573587 2.30047 112 134 145 
-0.0222096 0.573315 2.29938 109 131 142 
-0.015925 0.573366 2.29958 110 132 143 
-0.00963385 0.573089 2.29847 110 132 145 
-0.00335064 0.573136 2.29866 113 135 148 
0.00292735 0.571964 2.29396 111 133 147 
0.00919468 0.571727 2.29301 112 134 148 
0.0154441 0.571019 2.29017 114 133 147 
0.0217013 0.570926 2.2898 116 134 148 
0.0279707 0.571123 2.29059 115 133 147 
0.0342006 0.570589 2.28845 113 131 145 
0.0404489 0.570479 2.28801 112 130 144 
0.0466708 0.570076 2.28639 116 132 147 
0.0529812 0.570722 2.28898 114 132 146 
0.0592993 0.571305 2.29132 111 129 143 
0.0654741 0.570529 2.28821 117 135 149 
0.0716441 0.569849 2.28548 112 130 144 
0.0777398 0.568736 2.28101 111 130 144 
0.0840174 0.569019 2.28215 112 131 146 
0.0903435 0.56957 2.28436 113 132 149 
0.0965833 0.569539 2.28424 114 133 150 
0.102683 0.568736 2.28102 117 136 153 
0.108787 0.568051 2.27827 114 133 150 
0.115032 0.568132 2.27859 121 140 157 
0.121278 0.56821 2.27891 115 134 151 
0.127586 0.568557 2.2803 118 137 154 
0.133685 0.567986 2.27801 115 132 152 
0.139879 0.567849 2.27746 118 135 155 
0.14593 0.56717 2.27474 117 134 154 
0.152038 0.566756 2.27307 120 137 157 
0.158231 0.566682 2.27278 125 142 162 
0.164306 0.566204 2.27086 126 143 163 
0.170483 0.566103 2.27046 125 143 163 
0.176593 0.565791 2.2692 119 137 157 
0.182976 0.566349 2.27144 119 137 157 
0.188987 0.565752 2.26905 126 147 166 
0.195164 0.565678 2.26875 125 146 165 
0.201199 0.565208 2.26686 128 146 166 
0.207315 0.564987 2.26598 121 140 157 
0.213342 0.564545 2.26421 124 141 159 
0.219306 0.563964 2.26188 124 141 159 
0.225482 0.563945 2.2618 124 141 159 
0.231447 0.563414 2.25967 127 144 162 
0.237699 0.563591 2.26038 125 142 160 
0.244008 0.563889 2.26158 122 140 160 
0.250116 0.563722 2.26091 124 142 162 
0.256067 0.563215 2.25887 124 143 160 
0.262037 0.562776 2.25711 124 141 161 
0.267951 0.562236 2.25495 124 141 161 
0.273935 0.561868 2.25347 124 141 161 
0.280664 0.563008 2.25804 121 138 158 
0.286739 0.562816 2.25727 122 137 158 
0.29286 0.562719 2.25689 123 138 159 
0.298575 0.561864 2.25346 122 137 158 
0.304958 0.562274 2.2551 123 138 159 
0.311093 0.56222 2.25488 122 137 158 
0.317287 0.562274 2.2551 119 135 158 
0.322958 0.561414 2.25165 123 139 162 
0.329191 0.561546 2.25218 121 137 160 
0.334819 0.560661 2.24863 122 138 163 
0.340656 0.56015 2.24658 126 142 167 
0.346114 0.559046 2.24215 120 136 161 
0.352727 0.559814 2.24523 126 142 167 
0.35848 0.559214 2.24283 118 134 157 
0.364932 0.559705 2.24479 118 134 157 
0.370909 0.559465 2.24383 120 136 159 
0.377524 0.560178 2.24669 118 135 155 
0.383296 0.559638 2.24453 120 137 157 
0.388789 0.558713 2.24082 123 140 160 
0.394545 0.55819 2.23872 119 136 156 
0.400919 0.558545 2.24014 129 146 166 
0.407564 0.559259 2.24301 121 138 158 
0.413643 0.559188 2.24272 121 138 156 
0.419847 0.559285 2.24311 120 137 155 
0.425275 0.558361 2.2394 124 143 160 
0.430833 0.557631 2.23648 124 143 160 
0.437124 0.557857 2.23738 120 139 154 
0.442273 0.556639 2.2325 118 137 152 
0.44851 0.556805 2.23316 118 135 151 
0.454227 0.556329 2.23126 122 139 155 
0.459604 0.555456 2.22775 126 142 158 
0.464573 0.554119 2.22239 130 143 162 
0.469688 0.552988 2.21786 130 141 159 
0.475226 0.552378 2.21541 128 135 141 
0.515898 0.265136 1.06337 195 195 185 
0.525905 0.268764 1.07793 190 187 178 
0.532503 0.27062 1.08537 106 103 94 
0.536189 0.270983 1.08683 189 186 177 
0.540394 0.271604 1.08931 175 172 163 
0.544733 0.272284 1.09204 193 189 180 
0.54761 0.27223 1.09183 209 204 200 
0.551075 0.272467 1.09278 76 71 67 
0.552987 0.271939 1.09066 71 66 62 
0.555289 0.271606 1.08932 74 69 66 
0.558267 0.271606 1.08932 91 87 86 
0.56001 0.271008 1.08693 75 73 74 
0.562478 0.270766 1.08596 66 62 63 
0.564762 0.270438 1.08464 69 67 70 
0.568267 0.270695 1.08567 73 73 73 
0.573489 0.271764 1.08996 51 50 48 
0.614461 0.288185 1.15582 187 187 179 
0.614198 0.286588 1.14941 188 188 178 
0.614269 0.285162 1.14369 89 89 79 
0.617317 0.285125 1.14355 190 190 180 
0.616005 0.277493 1.11294 186 182 173 
0.620825 0.27829 1.11613 199 195 186 
0.632069 0.281944 1.13079 139 132 124 
0.653368 0.290027 1.1632 135 133 121 
0.666909 0.294604 1.18156 188 186 174 
0.675017 0.296748 1.19016 187 187 175 
0.688791 0.29292 1.17481 194 184 182 
0.689062 0.291675 1.16982 46 36 34 
0.686675 0.289322 1.16038 53 48 44 
0.686419 0.287885 1.15461 62 58 55 
0.686267 0.286503 1.14907 76 75 71 
0.687997 0.285917 1.14672 84 85 80 
0.690504 0.285657 1.14568 90 91 85 
0.696333 0.286768 1.15013 93 94 88 
0.732645 0.291203 1.16792 93 92 88 
0.735822 0.291197 1.1679 98 97 92 
0.714044 0.270827 1.0862 0 0 0 
0.704601 0.266139 1.0674 106 105 101 
0.707519 0.266139 1.0674 0 0 0 
0.679829 0.254673 1.02141 58 55 50 
0.74964 0.275173 1.10363 0 0 0 
0.730586 0.267104 1.07127 124 128 131 
0.733515 0.267104 1.07127 0 0 0 
0.722022 0.261874 1.05029 109 114 118 
0.720519 0.260294 1.04395 90 95 98 
-0.729665 0.592595 2.35093 121 140 147 
-0.721251 0.590967 2.34447 119 138 145 
-0.705283 0.593712 2.35536 116 131 138 
-0.699711 0.594448 2.35828 109 126 134 
-0.694332 0.595364 2.36192 114 131 139 
-0.682473 0.590688 2.34336 121 138 146 
-0.668141 0.59504 2.36063 132 151 158 
-0.661492 0.594864 2.35993 130 147 155 
-0.653951 0.593875 2.35601 128 147 154 
-0.647676 0.594027 2.35661 124 144 153 
-0.639111 0.59206 2.34881 117 139 150 
-0.634792 0.594027 2.35661 117 139 152 
-0.626565 0.59234 2.34992 118 140 151 
-0.619547 0.591774 2.34767 119 141 154 
-0.611719 0.590412 2.34227 119 143 155 
-0.606781 0.591842 2.34794 117 141 153 
-0.599307 0.590801 2.34381 122 145 159 
-0.59274 0.590643 2.34318 121 144 158 
-0.584376 0.588669 2.33536 123 144 161 
-0.57919 0.58989 2.3402 123 144 161 
-0.572033 0.589108 2.3371 121 144 160 
-0.567499 0.591039 2.34476 118 141 157 
-0.559635 0.589508 2.33868 121 144 160 
-0.555431 0.591841 2.34794 116 142 157 
-0.549257 0.592105 2.34899 116 142 157 
-0.543987 0.593361 2.35397 117 140 156 
-0.537304 0.593088 2.35289 113 139 154 
-0.529749 0.591834 2.34791 112 138 153 
-0.523216 0.591704 2.3474 113 139 154 
-0.517055 0.591997 2.34856 111 137 150 
-0.509403 0.59057 2.3429 114 137 151 
-0.502133 0.589554 2.33886 116 139 153 
-0.495076 0.588765 2.33574 112 135 151 
-0.488912 0.589032 2.33679 112 135 151 
-0.483505 0.59023 2.34155 113 136 152 
-0.477583 0.590822 2.3439 109 135 150 
-0.470234 0.589642 2.33921 107 133 148 
-0.463637 0.589384 2.33819 113 139 154 
-0.457183 0.589305 2.33788 112 134 148 
-0.450604 0.58906 2.3369 108 125 141 
-0.44327 0.587805 2.33193 96 112 125 
-0.435889 0.586452 2.32656 99 112 121 
-0.427675 0.583921 2.31652 163 176 184 
-0.418026 0.579325 2.29829 121 134 142 
-0.404364 0.568943 2.2571 0 0 0 
-0.390182 0.557496 2.21169 162 179 189 
-0.380651 0.552438 2.19162 81 99 111 
-0.372635 0.549453 2.17978 101 119 131 
-0.364116 0.545618 2.16456 99 117 129 
-0.35697 0.543746 2.15714 91 107 120 
-0.350223 0.54243 2.15192 107 124 134 
-0.34421 0.542224 2.1511 114 131 141 
-0.338128 0.541901 2.14982 116 132 145 
-0.332751 0.542717 2.15306 119 135 148 
-0.326437 0.542006 2.15024 116 134 146 
-0.320508 0.54192 2.14989 123 139 152 
-0.314944 0.542459 2.15203 120 136 149 
-0.308703 0.541832 2.14955 118 134 147 
-0.302517 0.541278 2.14735 117 133 146 
-0.296445 0.540911 2.14589 116 132 145 
-0.290846 0.541408 2.14786 116 132 145 
-0.284929 0.541322 2.14752 113 131 143 
-0.279285 0.541761 2.14926 115 133 145 
-0.273588 0.542115 2.15067 108 128 139 
-0.267749 0.542197 2.15099 118 138 149 
-0.261894 0.542249 2.1512 122 142 153 
-0.256507 0.543296 2.15535 123 141 153 
-0.251244 0.544661 2.16077 125 143 157 
-0.245793 0.545673 2.16478 127 145 157 
-0.240352 0.546758 2.16909 121 139 153 
-0.234889 0.547846 2.1734 125 143 157 
-0.228165 0.545973 2.16597 122 141 155 
-0.222452 0.546485 2.168 127 146 161 
-0.218255 0.550851 2.18533 126 145 160 
-0.214063 0.555476 2.20367 125 144 159 
-0.208347 0.5563 2.20694 111 130 145 
-0.204144 0.561331 2.2269 119 138 153 
-0.199614 0.565747 2.24442 159 178 193 
-0.193538 0.565921 2.24511 126 148 162 
-0.189481 0.572203 2.27003 127 149 163 
-0.185572 0.579376 2.29849 43 66 82 
-0.179704 0.580717 2.30381 69 92 110 
-0.173204 0.580042 2.30113 181 198 214 
-0.166571 0.578852 2.29641 137 151 164 
-0.160564 0.57983 2.30029 69 76 86 
-0.154796 0.581787 2.30805 52 57 61 
-0.148409 0.581482 2.30684 176 180 181 
-0.135434 0.579933 2.3007 173 181 184 
-0.129291 0.580588 2.3033 112 122 124 
-0.123096 0.581068 2.3052 102 115 124 
-0.116893 0.581563 2.30717 119 135 148 
-0.110551 0.581379 2.30644 112 130 142 
-0.104269 0.581507 2.30694 113 132 146 
-0.0979055 0.581171 2.30561 116 135 149 
-0.0916526 0.581488 2.30687 111 133 146 
-0.0852639 0.580928 2.30465 115 137 150 
-0.0790391 0.581484 2.30685 112 134 147 
-0.0728151 0.582142 2.30946 112 134 147 
-0.0664308 0.581523 2.30701 112 134 147 
-0.0600127 0.580446 2.30273 111 133 146 
-0.0536146 0.579333 2.29832 111 130 144 
-0.0474368 0.580622 2.30343 114 133 147 
-0.0412084 0.581591 2.30728 115 134 148 
-0.0349012 0.581596 2.30729 109 131 144 
-0.0285277 0.580257 2.30198 113 135 148 
-0.0221892 0.57907 2.29727 112 134 147 
-0.0159164 0.579338 2.29834 115 137 150 
-0.00963396 0.57938 2.2985 114 136 149 
-0.00335344 0.579903 2.30058 110 132 146 
0.00292755 0.578274 2.29412 111 133 147 
0.00920691 0.578764 2.29606 114 136 150 
0.0154681 0.578179 2.29374 114 136 150 
0.0217443 0.57833 2.29434 116 135 150 
0.0280034 0.578058 2.29326 118 136 150 
0.0341869 0.576614 2.28753 111 130 144 
0.0403937 0.575947 2.28489 114 132 146 
0.0465945 0.575384 2.28265 114 130 145 
0.0529024 0.576121 2.28558 113 131 145 
0.0592962 0.57754 2.2912 114 132 146 
0.0655053 0.57706 2.2893 115 134 148 
0.0716761 0.576355 2.2865 112 131 145 
0.0777933 0.575367 2.28258 111 130 144 
0.0840738 0.575644 2.28368 110 129 144 
0.0904223 0.576316 2.28635 109 128 143 
0.0965575 0.57563 2.28363 111 130 145 
0.102797 0.575609 2.28355 114 133 148 
0.109082 0.575834 2.28444 114 133 148 
0.115398 0.576188 2.28584 113 132 147 
0.121561 0.575783 2.28423 111 130 145 
0.127639 0.575029 2.28124 114 133 148 
0.133617 0.573921 2.27685 115 134 151 
0.139921 0.574247 2.27814 114 133 150 
0.146128 0.574167 2.27782 114 133 150 
0.152367 0.57421 2.27799 114 133 150 
0.158453 0.573698 2.27596 118 137 154 
0.164581 0.573373 2.27467 119 138 155 
0.170804 0.573388 2.27473 118 137 154 
0.176888 0.57295 2.27299 116 135 152 
0.183148 0.573095 2.27357 115 134 151 
0.188915 0.571738 2.26819 123 142 159 
0.195059 0.571572 2.26753 118 137 154 
0.201151 0.571268 2.26632 122 141 158 
0.207437 0.571517 2.26731 115 134 151 
0.21356 0.571316 2.26651 116 135 152 
0.219619 0.570959 2.2651 119 138 155 
0.225891 0.571162 2.2659 114 133 150 
0.23194 0.570804 2.26448 117 136 153 
0.238186 0.570936 2.26501 117 138 155 
0.244364 0.570905 2.26488 116 137 156 
0.250558 0.57091 2.2649 115 136 155 
0.256548 0.570461 2.26312 114 132 152 
0.262963 0.570955 2.26508 117 135 155 
0.268928 0.570474 2.26317 117 135 155 
0.274597 0.5694 2.25891 113 132 149 
0.280581 0.569012 2.25737 112 131 148 
0.286761 0.569029 2.25744 114 132 152 
0.292901 0.568969 2.2572 115 133 153 
0.298801 0.568454 2.25516 118 136 156 
0.305044 0.5686 2.25574 114 132 152 
0.311203 0.568586 2.25568 116 137 156 
0.317112 0.568124 2.25385 120 141 162 
0.323059 0.567747 2.25235 118 139 160 
0.329248 0.567802 2.25257 120 138 162 
0.334814 0.566799 2.24859 118 136 160 
0.340427 0.565912 2.24507 126 142 167 
0.345703 0.564505 2.23949 128 144 169 
0.352409 0.565442 2.24321 124 142 164 
0.35821 0.564919 2.24114 126 144 166 
0.364558 0.565262 2.2425 124 142 164 
0.370488 0.564956 2.24128 127 145 165 
0.37721 0.565848 2.24482 128 145 165 
0.383489 0.566059 2.24566 129 144 163 
0.389041 0.565206 2.24227 127 144 162 
0.394506 0.564254 2.2385 128 145 163 
0.400603 0.564223 2.23837 130 147 165 
0.407231 0.564929 2.24117 130 149 166 
0.413384 0.564965 2.24132 128 147 164 
0.418985 0.564257 2.23851 129 148 165 
0.424358 0.563266 2.23457 132 151 168 
0.430539 0.56336 2.23495 135 154 171 
0.436765 0.563509 2.23554 134 153 170 
0.442034 0.562438 2.23129 127 146 163 
0.447895 0.562138 2.2301 125 142 158 
0.453608 0.561663 2.22822 129 146 162 
0.459054 0.560875 2.22509 135 151 167 
0.464692 0.560339 2.22296 134 149 168 
0.470521 0.560043 2.22179 128 141 157 
0.477355 0.560936 2.22533 131 138 148 
0.474761 0.550868 2.18539 185 191 191 
0.215756 0.162444 0.644442 177 179 166 
0.531603 0.276203 1.09575 159 155 144 
0.530776 0.274228 1.08791 163 161 149 
0.530165 0.272386 1.0806 180 178 166 
0.530519 0.271058 1.07533 98 96 84 
0.543986 0.274892 1.09054 178 175 166 
0.549027 0.275927 1.09465 150 147 140 
0.552614 0.276224 1.09583 162 159 154 
0.554584 0.275714 1.09381 77 73 70 
0.555897 0.274885 1.09052 114 110 109 
0.558879 0.274885 1.09052 101 97 96 
0.559673 0.273815 1.08627 77 73 72 
0.561671 0.273342 1.0844 85 81 82 
0.564194 0.273129 1.08355 85 83 84 
0.56815 0.273607 1.08545 76 76 74 
0.573741 0.274864 1.09044 53 52 48 
0.611267 0.28983 1.14981 172 172 162 
0.613059 0.289192 1.14728 173 170 161 
0.614804 0.28854 1.14469 177 174 165 
0.619108 0.289088 1.14686 85 82 73 
0.608912 0.277306 1.10012 152 148 137 
0.61696 0.27959 1.10918 193 189 178 
0.632749 0.285342 1.132 48 46 34 
0.662275 0.297204 1.17906 190 190 178 
0.675821 0.301814 1.19735 127 125 113 
0.679429 0.301963 1.19794 199 197 185 
0.704349 0.304239 1.20697 0 0 0 
0.690585 0.296903 1.17787 199 194 190 
0.691212 0.295794 1.17347 55 50 46 
0.686878 0.292581 1.16072 47 44 39 
0.689236 0.292235 1.15935 68 67 62 
0.689255 0.290906 1.15407 77 78 72 
0.687997 0.289052 1.14672 84 85 79 
0.689284 0.288279 1.14365 103 104 98 
0.692626 0.288368 1.14401 85 86 80 
0.722402 0.29155 1.15663 96 97 91 
0.725595 0.291563 1.15668 101 100 95 
0.710932 0.273741 1.08598 0 0 0 
0.706606 0.270944 1.07488 87 86 82 
-0.710034 0.60976 2.39307 100 111 115 
-0.692625 0.600341 2.35611 113 124 128 
-0.609678 0.594824 2.33446 125 145 156 
-0.604924 0.59643 2.34076 125 145 156 
-0.557077 0.593178 2.328 124 143 150 
-0.55432 0.597063 2.34324 122 142 151 
-0.517372 0.598784 2.35 114 136 149 
-0.508745 0.596203 2.33987 115 134 148 
-0.501709 0.595444 2.33689 115 134 148 
-0.495873 0.596108 2.3395 112 130 142 
-0.490348 0.597169 2.34366 114 132 142 
-0.485209 0.598734 2.3498 116 136 147 
-0.478091 0.597866 2.34639 114 133 147 
-0.470491 0.596363 2.34049 110 132 145 
-0.463652 0.595796 2.33827 113 135 148 
-0.457473 0.596074 2.33936 114 133 147 
-0.450317 0.595068 2.33541 109 125 138 
-0.442708 0.593427 2.32897 92 108 121 
-0.43341 0.589441 2.31333 89 105 118 
-0.423577 0.584599 2.29433 89 103 114 
-0.414394 0.58052 2.27832 187 204 214 
-0.403924 0.574487 2.25464 0 0 0 
-0.391269 0.565112 2.21785 102 120 134 
-0.379134 0.556204 2.18289 138 157 171 
-0.371015 0.552997 2.1703 123 142 156 
-0.36309 0.549981 2.15846 100 118 130 
-0.356981 0.54966 2.1572 94 112 124 
-0.349276 0.546829 2.14609 100 116 129 
-0.343602 0.547136 2.1473 110 126 139 
-0.338192 0.547882 2.15022 112 128 141 
-0.332849 0.548764 2.15369 116 134 146 
-0.326532 0.548044 2.15086 120 138 150 
-0.320377 0.547574 2.14902 123 141 153 
-0.314087 0.546851 2.14618 120 136 149 
-0.307985 0.546435 2.14455 124 142 154 
-0.302257 0.546679 2.1455 117 135 147 
-0.296739 0.547318 2.14801 115 133 145 
-0.290971 0.547515 2.14879 116 136 147 
-0.284875 0.54709 2.14712 112 132 143 
-0.279037 0.547151 2.14736 109 129 140 
-0.273482 0.547784 2.14984 107 127 138 
-0.267709 0.547996 2.15067 121 140 154 
-0.261783 0.547898 2.15029 123 142 156 
-0.255934 0.547961 2.15054 125 144 159 
-0.250581 0.549115 2.15507 125 144 159 
-0.245015 0.549845 2.15793 123 141 155 
-0.240034 0.551956 2.16621 127 145 159 
-0.23443 0.552704 2.16915 130 149 163 
-0.228694 0.553176 2.171 128 147 161 
-0.222891 0.553501 2.17228 130 149 164 
-0.218195 0.556672 2.18472 126 145 160 
-0.212235 0.556704 2.18485 134 153 168 
-0.206196 0.556527 2.18415 149 168 183 
-0.201523 0.560133 2.19831 135 154 169 
-0.19786 0.566858 2.2247 130 149 166 
-0.193731 0.572628 2.24735 119 140 157 
-0.189516 0.578518 2.27046 155 176 193 
-0.184217 0.581381 2.2817 177 200 218 
-0.178277 0.582353 2.28551 192 213 232 
-0.172077 0.582517 2.28616 174 190 206 
-0.165943 0.582923 2.28775 120 132 146 
-0.160195 0.58477 2.295 45 52 62 
-0.153928 0.584799 2.29511 177 182 186 
-0.136443 0.59059 2.31784 165 174 179 
-0.129365 0.587223 2.30462 101 110 117 
-0.12301 0.586963 2.3036 101 115 126 
-0.116925 0.588029 2.30779 94 108 119 
-0.11045 0.587146 2.30432 114 130 143 
-0.104166 0.587236 2.30468 112 130 144 
-0.0976042 0.585666 2.29851 113 132 146 
-0.0914488 0.586488 2.30174 116 135 149 
-0.0852365 0.58704 2.3039 114 136 149 
-0.0790104 0.587577 2.30601 116 138 151 
-0.0728342 0.58861 2.31007 113 135 148 
-0.0664191 0.587726 2.3066 114 136 149 
-0.0600025 0.586641 2.30234 115 134 148 
-0.0535407 0.584809 2.29515 118 137 151 
-0.0473372 0.585687 2.29859 118 137 151 
-0.041094 0.586266 2.30087 118 137 151 
-0.0348467 0.586985 2.30369 113 132 146 
-0.0285427 0.586858 2.30319 117 136 150 
-0.0221991 0.58561 2.29829 117 139 152 
-0.0159131 0.585499 2.29786 120 142 155 
-0.00961572 0.584554 2.29415 118 141 155 
-0.00335004 0.585598 2.29825 117 140 154 
0.00292945 0.584926 2.29561 116 139 155 
0.00921755 0.585717 2.29871 113 136 152 
0.0154945 0.585446 2.29765 111 132 149 
0.0217564 0.584926 2.29561 118 140 154 
0.0279733 0.5837 2.2908 125 144 159 
0.0341135 0.581616 2.28262 118 137 151 
0.0403111 0.581002 2.28021 113 132 146 
0.0465907 0.581577 2.28246 113 131 143 
0.0528515 0.581809 2.28338 110 129 143 
0.0590907 0.58178 2.28326 114 133 147 
0.0652751 0.581268 2.28125 114 133 147 
0.0715141 0.581289 2.28133 113 132 147 
0.0777892 0.581577 2.28246 115 134 149 
0.0839922 0.581323 2.28147 113 132 147 
0.0903621 0.582179 2.28483 112 131 146 
0.0964742 0.581371 2.28166 113 132 147 
0.10288 0.582323 2.2854 113 132 147 
0.109124 0.582305 2.28532 115 134 149 
0.115216 0.581521 2.28225 113 132 147 
0.121283 0.580694 2.279 113 132 147 
0.127364 0.580014 2.27633 119 136 152 
0.133559 0.579895 2.27586 113 134 151 
0.139848 0.580173 2.27696 114 135 152 
0.146021 0.579969 2.27615 116 138 152 
0.152177 0.579713 2.27515 113 135 149 
0.158296 0.579345 2.27371 114 136 150 
0.164561 0.57952 2.27439 114 133 148 
0.170837 0.579717 2.27517 114 133 148 
0.176814 0.578922 2.27205 113 132 147 
0.182946 0.578671 2.27106 118 137 154 
0.188855 0.577756 2.26747 117 136 153 
0.195027 0.577675 2.26715 117 136 153 
0.20121 0.577634 2.26699 121 140 157 
0.207323 0.577399 2.26607 113 132 147 
0.213422 0.577139 2.26505 115 134 149 
0.219578 0.577045 2.26468 115 134 149 
0.225995 0.577621 2.26694 116 135 150 
0.232366 0.578053 2.26864 116 135 152 
0.238527 0.577954 2.26825 116 137 154 
0.244298 0.576941 2.26427 119 140 159 
0.250399 0.576735 2.26346 117 138 157 
0.25684 0.577304 2.2657 114 135 154 
0.263133 0.577521 2.26655 115 136 155 
0.269245 0.57734 2.26584 112 133 152 
0.274838 0.576081 2.2609 114 135 152 
0.280981 0.576004 2.2606 113 134 151 
0.287009 0.575699 2.2594 111 130 147 
0.293112 0.575554 2.25883 112 131 148 
0.298967 0.574939 2.25641 113 132 149 
0.304991 0.574666 2.25534 113 134 153 
0.31126 0.574856 2.25609 113 134 153 
0.317423 0.574848 2.25606 112 133 152 
0.323746 0.575125 2.25714 113 134 155 
0.329847 0.575004 2.25667 112 130 152 
0.335763 0.574571 2.25497 115 133 155 
0.341393 0.573672 2.25144 117 135 157 
0.346817 0.572467 2.24671 118 136 158 
0.35293 0.572419 2.24652 118 136 156 
0.358686 0.571804 2.24411 117 138 157 
0.364608 0.57147 2.2428 115 136 155 
0.370287 0.570774 2.24007 117 138 157 
0.376675 0.571174 2.24164 122 143 162 
0.383126 0.571656 2.24353 121 142 159 
0.389272 0.571675 2.2436 125 144 161 
0.395103 0.571237 2.24189 122 141 158 
0.40126 0.571277 2.24204 121 140 157 
0.40769 0.571699 2.2437 126 145 162 
0.413606 0.571399 2.24252 125 144 161 
0.419114 0.570551 2.23919 126 145 162 
0.424578 0.569669 2.23573 127 148 165 
0.431125 0.570245 2.23799 121 142 159 
0.437257 0.570262 2.23806 121 140 157 
0.442692 0.569383 2.23461 121 140 157 
0.448444 0.568932 2.23284 117 136 151 
0.454247 0.568554 2.23136 122 141 156 
0.459687 0.567738 2.22816 127 144 160 
0.465525 0.567431 2.22695 128 146 160 
0.471586 0.567398 2.22682 126 143 153 
0.478953 0.568918 2.23278 141 150 155 
0.533808 0.278786 1.09413 0 0 0 
0.526854 0.27362 1.07385 154 150 138 
0.524577 0.270928 1.06329 179 177 164 
0.531682 0.273085 1.07175 87 85 72 
0.544 0.27788 1.09057 172 170 158 
0.551577 0.280215 1.09973 164 161 154 
0.553635 0.279736 1.09786 160 157 152 
0.554649 0.278737 1.09394 89 85 82 
0.557639 0.278737 1.09394 88 84 83 
0.558639 0.277747 1.09005 79 75 76 
0.559474 0.276686 1.08589 81 77 76 
0.562022 0.276479 1.08507 99 95 94 
0.564482 0.276231 1.0841 92 91 89 
0.568151 0.276575 1.08545 54 55 50 
0.573604 0.277779 1.09017 54 53 49 
0.586374 0.282495 1.10868 182 182 174 
0.603866 0.289426 1.13589 187 184 175 
0.617012 0.292716 1.1488 189 185 176 
0.619783 0.292542 1.14811 190 186 177 
0.624628 0.293343 1.15126 94 90 81 
0.604619 0.278336 1.09236 147 147 135 
0.619291 0.28369 1.11337 88 90 76 
0.636368 0.290087 1.13848 92 96 81 
0.66597 0.302103 1.18564 191 193 179 
0.679962 0.306956 1.20469 168 166 153 
0.679433 0.305239 1.19795 129 127 114 
0.682708 0.305239 1.19795 174 172 159 
0.684076 0.304391 1.19462 131 131 119 
0.694771 0.300541 1.17951 192 189 182 
0.687679 0.296099 1.16208 108 105 100 
0.689573 0.295549 1.15992 63 62 57 
0.689105 0.293997 1.15382 75 74 69 
0.691815 0.293808 1.15308 72 73 67 
0.691829 0.292481 1.14788 81 82 76 
0.696046 0.292935 1.14966 78 79 73 
0.699189 0.292935 1.14966 86 85 80 
0.713635 0.29765 1.16816 97 96 91 
0.726013 0.297487 1.16752 78 79 73 
0.725946 0.296158 1.16231 111 112 106 
0.730271 0.296624 1.16414 0 0 0 
0.714823 0.28909 1.13457 112 109 104 
0.716334 0.279982 1.09882 104 103 101 
0.712167 0.277191 1.08787 105 101 98 
-0.609782 0.560257 2.17545 102 109 102 
-0.45703 0.601885 2.33709 112 126 135 
-0.44829 0.598746 2.32491 96 110 119 
-0.441282 0.597863 2.32147 91 105 116 
-0.430637 0.591954 2.29853 92 106 119 
-0.419823 0.585634 2.27399 113 127 140 
-0.410756 0.581598 2.25832 149 165 178 
-0.402806 0.579044 2.2484 219 235 248 
-0.388276 0.566806 2.20088 0 0 0 
-0.378334 0.560986 2.17828 98 116 130 
-0.371469 0.559614 2.17296 123 141 155 
-0.36466 0.558285 2.1678 130 149 163 
-0.356856 0.555363 2.15645 123 142 157 
-0.349877 0.553647 2.14979 127 145 159 
-0.343925 0.553526 2.14932 111 129 143 
-0.338219 0.553805 2.1504 101 119 133 
-0.332092 0.553391 2.14879 116 134 148 
-0.325569 0.55229 2.14452 121 139 153 
-0.31974 0.552349 2.14474 119 137 151 
-0.313537 0.551751 2.14242 121 139 151 
-0.307665 0.551723 2.14231 124 142 154 
-0.301675 0.55148 2.14137 120 138 152 
-0.296521 0.552785 2.14644 118 137 151 
-0.290856 0.55317 2.14794 117 136 150 
-0.285143 0.553479 2.14913 109 128 142 
-0.279028 0.553004 2.14729 101 120 134 
-0.274143 0.554999 2.15503 96 118 131 
-0.268334 0.555169 2.15569 110 132 146 
-0.262292 0.554853 2.15447 111 133 147 
-0.256647 0.555384 2.15653 123 144 161 
-0.250956 0.555835 2.15828 125 146 163 
-0.245653 0.557191 2.16355 140 159 176 
-0.239845 0.557438 2.16451 142 161 178 
-0.234194 0.558072 2.16697 151 170 187 
-0.228008 0.557431 2.16448 150 169 186 
-0.222942 0.559568 2.17278 135 154 171 
-0.217547 0.560973 2.17823 143 162 179 
-0.21236 0.56301 2.18614 128 147 164 
-0.206966 0.564599 2.19231 130 147 163 
-0.202393 0.568588 2.2078 132 149 165 
-0.197997 0.573336 2.22624 129 146 162 
-0.19362 0.57844 2.24606 133 150 166 
-0.188754 0.582374 2.26133 213 232 247 
-0.182648 0.582616 2.26227 188 205 221 
-0.176857 0.583914 2.26731 166 183 199 
-0.171078 0.585347 2.27288 150 163 179 
-0.165914 0.589076 2.28736 69 81 95 
-0.160171 0.590958 2.29466 76 84 95 
-0.154162 0.59197 2.29859 111 118 126 
-0.148298 0.59365 2.30512 117 125 128 
-0.142712 0.596643 2.31674 118 126 129 
-0.136421 0.59683 2.31746 106 115 122 
-0.129642 0.594792 2.30955 101 111 120 
-0.123075 0.59357 2.30481 105 119 130 
-0.116876 0.59409 2.30683 88 104 117 
-0.110631 0.594417 2.3081 107 123 136 
-0.104224 0.593865 2.30595 110 128 142 
-0.0976586 0.592279 2.29979 108 126 140 
-0.0915115 0.593187 2.30332 110 129 143 
-0.0852988 0.593772 2.30559 110 129 143 
-0.0790103 0.59388 2.30601 112 131 145 
-0.0727622 0.594337 2.30778 110 129 143 
-0.0664054 0.59391 2.30612 111 130 144 
-0.0600238 0.593146 2.30316 108 128 139 
-0.0535799 0.591517 2.29683 108 127 141 
-0.0473325 0.591912 2.29837 108 127 141 
-0.0410486 0.591902 2.29833 110 129 143 
-0.0348 0.592488 2.30061 111 130 144 
-0.0285235 0.592755 2.30164 117 136 151 
-0.0222255 0.592597 2.30103 116 135 150 
-0.0159231 0.592154 2.29931 114 136 150 
-0.00963536 0.592033 2.29884 120 142 156 
-0.00335357 0.592505 2.30067 117 140 154 
0.00293679 0.592683 2.30136 119 142 158 
0.00922939 0.592762 2.30167 122 145 161 
0.0155093 0.592294 2.29985 123 144 161 
0.0217624 0.591365 2.29624 123 144 161 
0.0279811 0.590128 2.29144 128 147 164 
0.0341885 0.589148 2.28763 118 137 152 
0.0403614 0.587969 2.28306 113 132 147 
0.0466671 0.588781 2.28621 115 134 149 
0.0528928 0.588511 2.28516 115 134 148 
0.0590602 0.587718 2.28208 114 133 147 
0.0653089 0.587808 2.28243 116 135 149 
0.0716006 0.588237 2.2841 115 134 149 
0.0779682 0.589169 2.28772 112 134 148 
0.0840736 0.588129 2.28368 113 132 147 
0.0902828 0.587909 2.28282 113 132 147 
0.0964993 0.587761 2.28225 112 131 146 
0.102905 0.588713 2.28595 113 132 147 
0.109245 0.589205 2.28786 112 129 145 
0.115382 0.588603 2.28552 115 132 148 
0.12146 0.58778 2.28233 110 129 144 
0.127648 0.587547 2.28142 115 134 149 
0.13381 0.587216 2.28013 113 135 149 
0.139914 0.586676 2.27803 116 138 152 
0.145919 0.585779 2.27455 117 139 153 
0.152143 0.585804 2.27465 113 135 149 
0.158389 0.585907 2.27505 115 137 151 
0.164682 0.586169 2.27607 112 131 145 
0.17081 0.585845 2.27481 113 132 147 
0.176942 0.585559 2.2737 114 133 148 
0.182947 0.584883 2.27108 119 138 153 
0.188957 0.584271 2.2687 118 137 152 
0.194843 0.583323 2.26502 115 134 151 
0.201028 0.583303 2.26494 120 139 154 
0.207075 0.582896 2.26336 114 133 147 
0.213322 0.583059 2.26399 115 134 149 
0.219659 0.58345 2.26551 111 133 147 
0.22614 0.584195 2.2684 111 133 147 
0.232381 0.584295 2.26879 116 137 154 
0.238031 0.582941 2.26353 113 134 151 
0.243764 0.581854 2.25931 119 140 157 
0.249677 0.581243 2.25694 117 138 157 
0.256141 0.581909 2.25953 115 136 155 
0.262325 0.581926 2.25959 114 135 154 
0.26861 0.58216 2.2605 113 134 153 
0.274414 0.581363 2.25741 115 136 153 
0.28057 0.581331 2.25728 113 134 151 
0.286472 0.580788 2.25517 114 135 152 
0.2927 0.580912 2.25565 110 131 148 
0.298892 0.580962 2.25585 114 135 152 
0.305024 0.580894 2.25559 114 135 154 
0.311273 0.58105 2.25619 114 135 154 
0.317335 0.580855 2.25543 114 135 154 
0.32349 0.580837 2.25536 116 134 154 
0.329221 0.58007 2.25239 115 133 153 
0.335091 0.579573 2.25046 115 133 153 
0.340885 0.578964 2.24809 118 136 156 
0.346628 0.578293 2.24548 119 137 157 
0.352729 0.57823 2.24524 118 136 156 
0.358904 0.578291 2.24548 118 136 156 
0.364709 0.577763 2.24343 116 134 154 
0.370274 0.576877 2.23999 118 137 154 
0.376407 0.576891 2.24004 117 136 153 
0.382882 0.577421 2.2421 118 137 154 
0.389043 0.577468 2.24228 120 139 156 
0.394787 0.576905 2.2401 121 140 157 
0.40061 0.576472 2.23841 120 139 156 
0.406741 0.576489 2.23848 123 142 159 
0.413013 0.576702 2.23931 122 141 158 
0.418709 0.576115 2.23703 125 144 161 
0.424083 0.57511 2.23312 127 146 163 
0.430951 0.57613 2.23709 123 142 159 
0.437213 0.576323 2.23784 119 138 155 
0.442868 0.575722 2.2355 116 135 150 
0.44845 0.575043 2.23286 117 136 150 
0.45435 0.574784 2.23186 118 140 154 
0.459905 0.574103 2.22922 125 142 158 
0.465744 0.573788 2.22799 125 143 157 
0.471455 0.573326 2.2262 127 144 152 
0.477923 0.573785 2.22798 133 142 147 
0.528964 0.277664 1.07816 130 126 114 
0.528218 0.275736 1.07067 130 126 115 
0.534509 0.277482 1.07745 118 114 103 
0.55381 0.285926 1.11024 135 132 125 
0.552635 0.283765 1.10185 144 141 136 
0.553868 0.282856 1.09832 179 178 174 
0.554784 0.281796 1.0942 79 75 76 
0.557775 0.281796 1.0942 103 99 100 
0.558916 0.280866 1.09059 92 88 89 
0.560618 0.280227 1.08811 76 72 71 
0.562673 0.27977 1.08633 87 83 82 
0.565378 0.279638 1.08582 90 89 87 
0.567263 0.279105 1.08375 88 89 84 
0.571703 0.279829 1.08656 53 52 47 
0.622518 0.296986 1.15318 146 142 133 
0.621135 0.294832 1.14482 0 0 0 
0.61634 0.29109 1.13029 0 0 0 
0.604097 0.283885 1.10231 0 0 0 
0.597478 0.27938 1.08482 183 181 169 
0.610907 0.284249 1.10372 107 109 95 
0.627689 0.290622 1.12847 123 127 110 
0.637202 0.293583 1.13997 143 150 132 
0.63821 0.292617 1.13622 44 48 31 
0.67615 0.308511 1.19793 172 173 159 
0.677919 0.307827 1.19528 170 171 157 
0.681187 0.307827 1.19528 120 118 105 
0.682311 0.306863 1.19154 97 98 84 
0.694526 0.310872 1.2071 172 172 160 
0.693767 0.303327 1.1778 0 0 0 
0.686486 0.298757 1.16006 182 182 172 
0.690407 0.299081 1.16132 71 71 63 
0.689105 0.297151 1.15382 62 61 56 
0.691796 0.296952 1.15305 75 74 69 
0.690734 0.295151 1.14606 83 84 78 
0.694584 0.295456 1.14724 87 88 82 
0.69772 0.295456 1.14724 87 86 81 
0.725507 0.30047 1.16671 98 99 93 
0.729645 0.300861 1.16823 89 90 84 
0.731392 0.300267 1.16592 101 100 95 
0.724261 0.287322 1.11566 106 105 103 
0.722067 0.285251 1.10762 0 0 0 
0.69772 0.274482 1.0658 74 70 67 
-0.432215 0.600429 2.30695 96 108 108 
-0.409583 0.586093 2.25187 116 127 131 
-0.401656 0.58352 2.24198 184 197 203 
-0.38941 0.574495 2.20731 0 0 0 
-0.378571 0.567295 2.17964 108 122 135 
-0.372575 0.567238 2.17943 121 137 152 
-0.365232 0.565096 2.1712 95 112 128 
-0.35785 0.562821 2.16245 99 116 132 
-0.350753 0.560925 2.15517 108 127 144 
-0.344964 0.561093 2.15582 125 144 161 
-0.338587 0.560293 2.15274 137 156 171 
-0.332085 0.559253 2.14875 138 157 172 
-0.325755 0.558473 2.14575 131 150 165 
-0.319922 0.55853 2.14597 128 147 162 
-0.313781 0.558042 2.14409 123 142 157 
-0.307804 0.557833 2.14329 133 152 167 
-0.301722 0.55742 2.1417 127 146 161 
-0.296322 0.558277 2.14499 118 137 152 
-0.29058 0.558511 2.14589 119 138 153 
-0.284819 0.558718 2.14669 123 145 159 
-0.278691 0.5582 2.1447 147 169 183 
-0.273022 0.558596 2.14622 147 168 185 
-0.267504 0.559327 2.14903 152 173 190 
-0.262008 0.560137 2.15214 151 172 189 
-0.256281 0.560478 2.15345 133 156 174 
-0.250842 0.561482 2.15731 139 162 180 
-0.245179 0.562019 2.15937 139 162 178 
-0.239146 0.561713 2.1582 136 157 174 
-0.233086 0.561329 2.15672 131 152 169 
-0.227732 0.562667 2.16186 128 149 166 
-0.222141 0.563478 2.16498 129 148 165 
-0.216852 0.565118 2.17128 120 139 156 
-0.211618 0.566998 2.1785 126 145 162 
-0.208454 0.574693 2.20807 130 147 163 
-0.20337 0.577399 2.21846 126 142 158 
-0.197708 0.578577 2.22299 111 127 143 
-0.191892 0.579365 2.22602 234 250 255 
-0.18637 0.581119 2.23276 188 204 220 
-0.180865 0.583053 2.24019 194 207 224 
-0.175753 0.58643 2.25317 134 147 163 
-0.171062 0.591506 2.27267 95 107 121 
-0.16572 0.594633 2.28468 64 74 86 
-0.159892 0.596189 2.29066 85 95 105 
-0.153912 0.597284 2.29487 89 99 109 
-0.148048 0.59894 2.30123 90 100 109 
-0.142063 0.600233 2.3062 92 105 113 
-0.136099 0.60174 2.31199 96 110 121 
-0.1296 0.600912 2.30881 102 116 129 
-0.122964 0.599331 2.30273 107 121 132 
-0.116633 0.599146 2.30202 92 109 119 
-0.110481 0.599913 2.30497 114 131 141 
-0.104214 0.60011 2.30573 112 129 139 
-0.0977379 0.599052 2.30166 115 129 140 
-0.0915081 0.599461 2.30323 114 131 139 
-0.0853983 0.600775 2.30828 114 131 139 
-0.0789707 0.599884 2.30486 118 135 145 
-0.0726802 0.59997 2.30519 117 134 144 
-0.0662407 0.598725 2.3004 112 130 142 
-0.0599838 0.599043 2.30162 113 133 144 
-0.0535922 0.597933 2.29736 113 131 143 
-0.0473282 0.598141 2.29816 113 131 143 
-0.0409775 0.597148 2.29435 113 131 143 
-0.0347307 0.597585 2.29602 114 132 146 
-0.0284742 0.59801 2.29766 120 138 152 
-0.0222084 0.598427 2.29926 119 137 151 
-0.0159116 0.59801 2.29765 120 139 153 
-0.00963546 0.598323 2.29886 126 145 159 
-0.00335288 0.598672 2.3002 121 145 157 
0.00293547 0.598705 2.30033 120 143 157 
0.00921347 0.598021 2.2977 120 143 157 
0.0154946 0.598014 2.29767 118 140 154 
0.0217374 0.596957 2.29361 122 144 158 
0.027959 0.595921 2.28963 127 149 163 
0.0341832 0.595309 2.28728 127 146 161 
0.0404307 0.59523 2.28698 117 136 151 
0.0467807 0.59648 2.29178 114 133 148 
0.053024 0.596233 2.29083 114 133 147 
0.0591295 0.594654 2.28476 114 133 147 
0.0653598 0.594511 2.28421 112 134 147 
0.0715225 0.593832 2.2816 112 134 148 
0.0779326 0.595151 2.28667 110 132 146 
0.0839097 0.593213 2.27923 110 131 148 
0.0902694 0.594061 2.28248 115 134 151 
0.096448 0.593685 2.28104 116 135 150 
0.102889 0.594873 2.2856 115 134 149 
0.109016 0.59421 2.28306 112 129 145 
0.115147 0.593639 2.28086 114 131 147 
0.121317 0.593319 2.27963 115 134 149 
0.127536 0.59326 2.2794 114 133 150 
0.133712 0.593016 2.27847 114 135 152 
0.139716 0.592064 2.27481 115 138 154 
0.145725 0.591211 2.27153 115 136 153 
0.152079 0.591772 2.27369 114 136 150 
0.158392 0.592137 2.27509 116 138 152 
0.164616 0.592151 2.27515 114 133 147 
0.170556 0.591183 2.27142 114 133 147 
0.176732 0.59107 2.27099 113 132 147 
0.18289 0.590908 2.27037 114 133 148 
0.189188 0.591192 2.27146 116 133 149 
0.195154 0.590456 2.26863 117 134 152 
0.201402 0.590592 2.26915 120 139 154 
0.207394 0.58999 2.26684 113 132 146 
0.213571 0.589934 2.26663 115 134 149 
0.220054 0.590704 2.26959 110 132 146 
0.226443 0.591185 2.27143 111 133 147 
0.232516 0.590838 2.2701 113 135 149 
0.238205 0.589561 2.26519 111 132 149 
0.243881 0.588314 2.2604 110 131 148 
0.250059 0.588311 2.26039 111 132 149 
0.256463 0.588826 2.26237 113 134 151 
0.262718 0.588983 2.26297 113 134 153 
0.269062 0.589328 2.2643 110 131 150 
0.275009 0.588809 2.2623 113 134 151 
0.281265 0.588957 2.26287 111 133 147 
0.287012 0.588058 2.25942 111 133 147 
0.293157 0.587994 2.25917 112 134 148 
0.299165 0.587665 2.25791 114 135 152 
0.305177 0.587355 2.25672 115 134 151 
0.311242 0.587158 2.25596 116 135 152 
0.317257 0.586877 2.25488 119 137 157 
0.323384 0.586809 2.25462 118 136 156 
0.329108 0.586026 2.25161 117 135 155 
0.335193 0.585904 2.25114 119 137 157 
0.340836 0.585027 2.24777 119 137 157 
0.346924 0.58493 2.2474 120 138 158 
0.352848 0.584566 2.246 118 136 156 
0.359314 0.585097 2.24804 120 138 158 
0.365113 0.584541 2.24591 122 140 160 
0.370977 0.584108 2.24424 123 142 159 
0.376833 0.583675 2.24258 120 139 156 
0.382755 0.583357 2.24136 118 137 154 
0.388644 0.582999 2.23998 118 137 154 
0.394565 0.5827 2.23883 116 135 152 
0.400878 0.582981 2.23991 118 137 154 
0.407054 0.583056 2.2402 120 139 156 
0.413258 0.583169 2.24063 121 139 159 
0.418976 0.582603 2.23846 120 138 158 
0.424499 0.581784 2.23531 118 137 154 
0.431141 0.582502 2.23807 118 137 154 
0.437159 0.582369 2.23756 118 137 152 
0.442932 0.581917 2.23583 118 137 152 
0.448836 0.581647 2.23479 122 141 156 
0.454959 0.581664 2.23485 122 141 156 
0.460622 0.581101 2.23269 126 143 159 
0.46644 0.580746 2.23132 125 142 158 
0.471689 0.5797 2.2273 134 148 159 
0.477011 0.57877 2.22373 133 140 146 
0.528133 0.278618 1.0705 128 124 113 
0.532733 0.279496 1.07387 134 130 121 
0.54468 0.284198 1.09194 72 69 64 
0.553058 0.286996 1.10269 134 132 133 
0.553123 0.285474 1.09684 191 191 193 
0.556122 0.285474 1.09684 77 75 80 
0.556424 0.284098 1.09155 79 77 80 
0.557911 0.283337 1.08863 96 92 93 
0.560396 0.283089 1.08768 66 62 61 
0.562803 0.282805 1.08658 89 83 83 
0.565587 0.282711 1.08622 80 76 75 
0.567096 0.281985 1.08344 107 106 102 
0.569873 0.281894 1.08308 56 53 48 
0.617056 0.296006 1.1373 0 0 0 
0.608352 0.290367 1.11564 0 0 0 
0.604475 0.287077 1.103 78 74 65 
0.601762 0.284371 1.0926 112 110 98 
0.613662 0.288561 1.1087 80 82 68 
0.63875 0.298883 1.14836 0 0 0 
0.629877 0.293289 1.12687 134 139 119 
0.640582 0.296822 1.14044 46 50 33 
0.671548 0.309663 1.18978 137 138 124 
0.6748 0.309663 1.18978 138 136 123 
0.680354 0.310714 1.19382 133 134 120 
0.680953 0.309503 1.18916 110 111 97 
0.681065 0.308083 1.18371 128 129 115 
0.712624 0.320835 1.2327 140 144 127 
0.681703 0.299824 1.15198 155 158 141 
0.690407 0.302256 1.16132 146 146 136 
0.690131 0.300752 1.15554 61 61 53 
0.692463 0.300393 1.15416 72 71 66 
0.690374 0.298129 1.14546 83 82 77 
0.693505 0.298129 1.14546 87 86 81 
0.695787 0.297765 1.14406 84 83 78 
0.704072 0.299962 1.15251 89 88 83 
0.725176 0.303521 1.16618 91 90 85 
0.72758 0.303194 1.16492 99 98 93 
0.750916 0.311555 1.19705 111 108 103 
0.730862 0.293019 1.12583 0 0 0 
0.720793 0.28777 1.10566 0 0 0 
0.705506 0.280491 1.07769 73 68 65 
-0.387878 0.578246 2.19862 117 125 136 
-0.378105 0.572548 2.17696 106 115 130 
-0.370879 0.570588 2.16951 151 165 178 
-0.363671 0.568591 2.16191 96 113 129 
-0.357416 0.568044 2.15983 103 120 138 
-0.352614 0.569824 2.16661 99 117 137 
-0.345441 0.56777 2.15879 99 117 137 
-0.338002 0.565199 2.14902 102 121 138 
-0.331514 0.564156 2.14505 98 117 134 
-0.325975 0.564718 2.14719 108 127 144 
-0.320041 0.564606 2.14676 112 131 148 
-0.313552 0.563491 2.14253 111 130 147 
-0.307585 0.56329 2.14176 121 142 159 
-0.301585 0.563019 2.14073 131 152 169 
-0.295976 0.563483 2.1425 144 165 182 
-0.290166 0.563575 2.14284 136 157 174 
-0.284063 0.563088 2.14099 137 158 175 
-0.278 0.562663 2.13938 132 153 170 
-0.272287 0.562943 2.14044 135 156 173 
-0.267089 0.564325 2.14569 128 149 168 
-0.261615 0.56517 2.14891 125 146 165 
-0.25585 0.565413 2.14983 122 143 162 
-0.250353 0.566272 2.1531 122 145 161 
-0.245407 0.56845 2.16138 127 148 165 
-0.239426 0.568278 2.16073 127 148 165 
-0.233622 0.568529 2.16168 126 147 164 
-0.228314 0.570031 2.16739 129 150 167 
-0.224034 0.574247 2.18342 130 149 166 
-0.217486 0.572722 2.17762 121 140 157 
-0.212976 0.576629 2.19248 128 145 161 
-0.208766 0.5816 2.21138 129 145 161 
-0.203418 0.5836 2.21898 126 139 155 
-0.196946 0.5824 2.21442 133 146 162 
-0.190851 0.582275 2.21394 209 222 238 
-0.184923 0.582666 2.21543 111 120 137 
-0.179414 0.584448 2.22221 159 169 181 
-0.174949 0.589877 2.24285 103 112 121 
-0.171171 0.5981 2.27411 57 64 70 
-0.166026 0.601987 2.2889 57 65 68 
-0.160148 0.603417 2.29433 69 79 81 
-0.154141 0.604456 2.29828 79 89 91 
-0.148226 0.605961 2.304 78 89 91 
-0.142132 0.606832 2.30732 92 106 107 
-0.136102 0.608074 2.31204 92 106 109 
-0.129647 0.607443 2.30964 90 104 107 
-0.122917 0.605396 2.30186 99 113 116 
-0.116276 0.603589 2.29499 95 109 110 
-0.110335 0.605416 2.30193 109 123 124 
-0.104293 0.606874 2.30748 110 121 123 
-0.0980306 0.607157 2.30855 113 124 126 
-0.0916726 0.606846 2.30737 114 125 127 
-0.0856062 0.608563 2.3139 115 126 130 
-0.0791052 0.607217 2.30878 113 126 132 
-0.0727611 0.606946 2.30775 112 125 131 
-0.0662552 0.605146 2.30091 113 126 132 
-0.0599654 0.605149 2.30092 111 126 133 
-0.0536233 0.604563 2.29869 111 128 135 
-0.0474036 0.605386 2.30182 114 131 138 
-0.0410475 0.604452 2.29827 117 134 142 
-0.0347621 0.604408 2.2981 118 135 145 
-0.0284782 0.604377 2.29798 120 137 147 
-0.0222264 0.605202 2.30112 124 141 151 
-0.01594 0.605369 2.30176 124 141 151 
-0.00964461 0.605182 2.30104 124 140 153 
-0.00335069 0.604564 2.29869 125 143 155 
0.00293035 0.603939 2.29632 124 144 155 
0.00920877 0.603994 2.29652 127 147 158 
0.0154974 0.604403 2.29808 122 144 155 
0.0217585 0.603812 2.29583 126 146 155 
0.0279819 0.602673 2.2915 125 145 156 
0.0342205 0.602218 2.28977 127 145 159 
0.0404714 0.602088 2.28928 117 135 149 
0.046828 0.603354 2.29409 117 135 147 
0.0530858 0.603198 2.2935 117 135 147 
0.0592787 0.602416 2.29053 118 138 149 
0.0654551 0.601632 2.28754 117 136 150 
0.0715576 0.600363 2.28272 117 136 150 
0.0778722 0.600936 2.2849 115 134 148 
0.0839609 0.59981 2.28062 113 132 147 
0.0902713 0.600314 2.28253 117 136 151 
0.0964547 0.599962 2.2812 118 137 152 
0.102801 0.600607 2.28365 116 135 150 
0.109024 0.600494 2.28322 118 135 153 
0.115087 0.599565 2.27969 121 135 148 
